4869 4872 4865 4853 4847 4844 4844 4848 4850 4860 4874 4892 4896 4898 4901 4902 4900 4895 4887 4876 4850 4820 4796 4789 4785 4778 4780 4780 4772 4768 4771 4770 4770 4768 4770 4769 4769 4768 4768 4770 4772 4777 4777 4777 4781 4785 4786 4782 4786 4792 4790 4796 4798 4796 4797 4799 4802 4802 4799 4801 4804 4805 4807 4809 4807 4810 4815 4813 4816 4818 4819 4821 4823 4826 4830 4834 4836 4839 4841 4845 4846 4849 4856 4860 4862 4869 4873 4877 4881 4885 4887 4891 4894 4896 4900 4906 4908 4916 4922 4927 4937 4945 4955 4962 4968 4974 4985 4993 4999 5009 5018 5028 5041 5052 5066 5082 5097 5113 5125 5142 5157 5168 5182 5195 5210 5223 5231 5240 5249 5261 5268 5276 5284 5291 5301 5308 5314 5322 5331 5338 5344 5351 5360 5368 5380 5390 5404 5411 5421 5434 5444 5457 5468 5477 5486 5496 5506 5513 5522 5524 5528 5529 5524 5520 5513 5508 5508 5516 5532 5551 5568 5583 5604 5626 5656 5677 5693 5723 5747 5768 5797 5814 5838 5865 5882 5898 5916 5926 5940 5951 5961 5985 6013 6021 6032 6035 6042 6036 6011 5979 5945 5911 5885 5865 5851 5838 5836 5836 5841 5862 5886 5894 5901 5904 5919 5950 6000 6052 6098 6151 6195 6242 6225 6195 6174 6161 6136 6121 6113 6105 6093 6078 6065 6048 6030 6022 6015 6004 6002 5997 5993 5990 5981 5968 5960 5947 5941 5936 5926 5917 5907 5894 5885 5889 5905 5930 5957 5976 5993 6007 6034 6050 6061 6081 6094 6097 6116 6131 6143 6152 6176 6202 6277 6297 6300 6304 6305 6302 6299 6278 6247 6226 6207 6192 6173 6163 6159 6156 6152 6148 6149 6162 6193 6233 6260 6275 6292 6292 6293 6292 6292 6296 6309 6322 6327 6341 6343 6353 6363 6392 6409 6415 6413 6403 6400 6390 6374 6361 6347 6327 6300 6277 6259 6240 6220 6197 6188 6181 6180 6181 6176 6171 6164 6170 6213 6261 6309 6366 6416 6427 6421 6423 6432 6421 6398 6376 6356 6339 6317 6311 6306 6284 6261 6241 6214 6201 6172 6139 6118 6102 6090 6085 6092 6097 6085 6065 6051 6031 6011 5988 5966 5948 5933 5910 5878 5845 5810 5777 5747 5719 5690 5662 5645 5644 5638 5620 5589 5563 5528 5480 5439 5397 5360 5323 5289 5255 5229 5209 5191 5172 5156 5140 5127 5119 5111 5103 5102 5095 5093 5093 5091 5089 5089 5082 5072 5066 5054 5029 5015 5009 5008 5002 5004 5015 5038 5043 5043 5044 5041 5033 5029 5025 5021 5017 5010 5004 4999 4991 4988 4978 4974 4972 4970 4968 4963 4960 4953 4949 4943 4942 4938 4934 4929 4923 4922 4915 4909 4906 4902 4902 4899 4894 4888 4884 4884 4879 4879 4875 4864 4851 4844 4834 4823 4821 4822 4819 4815 4810 4808 4803 4805 4804 4804 4802 4800 4800 4800 4798 4796 4793 4791 4791 4790 4784 4784 4784 4780 4781 4784 4785 4788 4790 4787 4783 4777 4775 4768 4765 4764 4765 4766 4765 4762 4757 4752 4751 4747 4747 4744 4744 4745 4744 4741 4740 4746 4742 4744 4748 4752 4753 4751 4750 4760 4763 4767 4771 4773 4775 4778 4782 4784 4788 4793 4796 4805 4808 4813 4814 4822 4827 4834 4843 4849 4856 4865 4872 4882 4895 4902 4916 4925 4934 4953 4977 4996 5014 5024 5032 5040 5051 5056 5061 5059 5052 5045 5029 5009 4988 4974 4968 4975 4995 5012 5025 5031 5023 5027 5017 5007 4996 4987 4988 4986 4980 4976 4970 4971
4854 4849 4842 4837 4833 4834 4836 4846 4852 4858 4870 4884 4889 4894 4898 4900 4895 4896 4890 4874 4844 4819 4801 4791 4784 4778 4776 4776 4774 4771 4770 4770 4770 4767 4765 4766 4767 4769 4771 4771 4771 4774 4771 4774 4781 4783 4785 4787 4794 4804 4801 4799 4796 4791 4797 4800 4803 4803 4803 4801 4801 4804 4805 4806 4808 4808 4811 4814 4817 4817 4820 4822 4825 4828 4830 4833 4837 4839 4840 4845 4849 4854 4857 4861 4867 4871 4873 4877 4884 4888 4891 4895 4899 4901 4904 4909 4914 4922 4929 4934 4941 4949 4959 4967 4977 4984 4994 5003 5008 5016 5025 5034 5044 5056 5068 5082 5096 5110 5127 5141 5153 5164 5177 5189 5202 5216 5225 5236 5247 5255 5262 5270 5280 5287 5294 5301 5309 5316 5325 5332 5339 5349 5355 5371 5382 5390 5401 5411 5421 5432 5445 5455 5464 5475 5480 5486 5492 5489 5490 5490 5490 5490 5488 5489 5487 5487 5496 5515 5536 5553 5567 5586 5608 5632 5663 5695 5718 5735 5755 5775 5792 5806 5826 5849 5870 5887 5904 5910 5913 5922 5933 5946 5960 5965 5970 5977 5983 5986 5964 5934 5904 5872 5852 5833 5818 5818 5827 5831 5836 5846 5863 5879 5893 5904 5933 5957 6019 6090 6144 6183 6207 6229 6228 6204 6176 6157 6140 6125 6110 6097 6082 6070 6056 6045 6036 6023 6008 6007 5995 5986 5982 5976 5966 5954 5943 5936 5928 5925 5921 5910 5903 5891 5876 5870 5882 5897 5923 5949 5981 6010 6036 6058 6070 6086 6094 6102 6113 6122 6133 6143 6157 6190 6249 6278 6278 6278 6274 6269 6263 6243 6218 6204 6195 6184 6173 6161 6151 6147 6147 6141 6140 6143 6152 6186 6229 6268 6302 6320 6335 6356 6362 6374 6389 6395 6401 6403 6388 6386 6386 6377 6370 6356 6354 6353 6350 6350 6345 6341 6332 6315 6287 6270 6259 6237 6204 6180 6165 6159 6159 6168 6161 6159 6152 6147 6174 6222 6268 6316 6356 6363 6344 6355 6380 6377 6350 6318 6323 6336 6344 6344 6345 6331 6319 6303 6294 6267 6236 6211 6179 6160 6168 6153 6135 6117 6089 6057 6032 6013 5993 5974 5950 5933 5921 5896 5864 5828 5788 5752 5716 5683 5657 5634 5614 5598 5590 5580 5557 5527 5491 5444 5406 5374 5343 5315 5285 5258 5235 5218 5199 5180 5164 5149 5138 5127 5118 5108 5106 5102 5096 5089 5087 5081 5076 5073 5063 5057 5046 5020 5012 5005 5004 5000 5001 5005 5023 5034 5031 5032 5031 5023 5021 5017 5015 5009 5002 4997 4992 4987 4982 4975 4971 4968 4967 4964 4959 4955 4952 4947 4943 4936 4933 4931 4928 4924 4919 4915 4911 4911 4908 4905 4900 4896 4891 4888 4889 4885 4881 4879 4866 4851 4845 4834 4828 4827 4826 4823 4817 4813 4809 4810 4808 4808 4804 4804 4802 4800 4799 4795 4792 4791 4788 4788 4787 4782 4778 4780 4783 4782 4781 4780 4782 4783 4782 4776 4773 4771 4765 4760 4759 4761 4761 4760 4756 4754 4749 4745 4744 4743 4742 4742 4742 4743 4741 4738 4741 4741 4741 4748 4752 4753 4753 4754 4757 4761 4767 4767 4771 4774 4777 4782 4782 4789 4793 4798 4803 4810 4813 4815 4824 4830 4837 4842 4847 4855 4865 4874 4882 4892 4900 4906 4916 4925 4942 4964 4984 5005 5024 5035 5038 5046 5050 5053 5050 5043 5031 5019 5003 4988 4969 4957 4962 4981 5000 5010 5006 4990 4992 4984 4978 4973 4967 4964 4960 4960 4962 4965 4975
4844 4841 4832 4829 4826 4828 4836 4849 4852 4855 4861 4872 4883 4890 4895 4901 4898 4893 4883 4860 4833 4817 4804 4795 4785 4779 4775 4771 4772 4769 4767 4767 4764 4765 4767 4768 4771 4770 4769 4769 4770 4771 4774 4777 4783 4783 4785 4788 4795 4800 4801 4801 4797 4792 4797 4799 4801 4800 4801 4802 4802 4803 4803 4808 4808 4807 4809 4810 4812 4815 4819 4822 4825 4829 4831 4834 4837 4841 4844 4846 4852 4856 4858 4862 4867 4872 4874 4880 4886 4891 4893 4898 4903 4906 4910 4915 4920 4923 4932 4941 4948 4954 4963 4973 4982 4989 4998 5007 5019 5025 5033 5044 5052 5060 5070 5081 5094 5105 5123 5134 5146 5161 5170 5187 5198 5208 5224 5234 5242 5249 5256 5264 5272 5280 5289 5297 5303 5313 5323 5333 5338 5351 5360 5371 5385 5393 5402 5414 5424 5434 5444 5452 5461 5463 5462 5462 5458 5453 5450 5450 5451 5455 5460 5464 5467 5476 5503 5523 5538 5548 5560 5572 5587 5609 5635 5655 5666 5677 5699 5713 5729 5743 5763 5786 5806 5831 5839 5851 5857 5859 5867 5877 5881 5895 5905 5906 5914 5926 5916 5890 5858 5841 5825 5808 5807 5823 5834 5837 5839 5846 5859 5875 5889 5908 5940 5979 6049 6119 6157 6156 6158 6171 6185 6192 6176 6155 6136 6121 6110 6091 6070 6061 6060 6057 6042 6026 6019 6007 5993 5987 5973 5964 5951 5940 5930 5928 5926 5921 5912 5900 5895 5883 5875 5862 5862 5882 5909 5933 5968 6005 6025 6049 6069 6080 6099 6109 6113 6123 6132 6139 6166 6213 6262 6283 6277 6268 6266 6260 6250 6229 6205 6194 6193 6185 6173 6160 6147 6142 6140 6134 6130 6128 6135 6146 6182 6217 6250 6277 6323 6366 6404 6441 6460 6433 6410 6391 6372 6361 6349 6331 6316 6303 6297 6293 6290 6293 6297 6304 6308 6297 6276 6266 6255 6224 6196 6168 6152 6146 6146 6146 6143 6139 6134 6130 6140 6174 6211 6255 6286 6287 6271 6281 6304 6324 6295 6255 6259 6300 6312 6312 6313 6302 6288 6292 6302 6309 6291 6272 6244 6215 6190 6157 6121 6087 6057 6027 5995 5967 5942 5916 5892 5876 5866 5851 5827 5794 5760 5722 5696 5689 5695 5676 5640 5589 5551 5525 5499 5475 5446 5410 5381 5358 5329 5308 5284 5262 5243 5223 5205 5187 5170 5158 5144 5134 5122 5113 5109 5101 5099 5092 5086 5080 5067 5062 5055 5048 5037 5017 5007 5003 5002 5000 4996 5000 5009 5023 5023 5021 5016 5013 5014 5014 5007 4999 4994 4989 4985 4981 4976 4972 4967 4964 4961 4961 4957 4951 4948 4942 4941 4936 4933 4932 4929 4925 4921 4916 4915 4914 4910 4905 4899 4897 4893 4890 4888 4887 4886 4883 4871 4853 4842 4835 4833 4831 4825 4823 4815 4815 4812 4810 4810 4808 4804 4802 4800 4797 4797 4792 4791 4787 4781 4783 4783 4781 4779 4777 4780 4781 4778 4777 4778 4779 4776 4771 4767 4767 4763 4759 4756 4757 4758 4757 4756 4752 4748 4745 4743 4743 4742 4744 4742 4740 4739 4742 4739 4740 4741 4746 4751 4750 4753 4754 4756 4759 4760 4764 4767 4770 4776 4779 4783 4790 4794 4800 4804 4806 4811 4819 4823 4830 4838 4842 4844 4855 4863 4870 4879 4888 4895 4900 4910 4917 4930 4947 4967 4989 5006 5016 5022 5030 5039 5045 5044 5036 5027 5022 5012 4997 4970 4951 4948 4966 4988 4990 4980 4967 4963 4959 4954 4953 4950 4952 4952 4954 4962 4970 4986
4845 4837 4830 4824 4823 4823 4828 4837 4837 4842 4846 4858 4872 4884 4893 4897 4898 4892 4874 4849 4833 4824 4814 4805 4795 4784 4776 4769 4768 4766 4764 4766 4766 4763 4767 4768 4767 4766 4767 4766 4770 4770 4773 4776 4779 4779 4783 4783 4785 4790 4791 4789 4788 4790 4796 4795 4797 4799 4801 4800 4802 4802 4804 4806 4805 4806 4808 4810 4812 4815 4818 4822 4824 4827 4831 4835 4836 4842 4845 4847 4852 4857 4860 4865 4871 4873 4876 4883 4888 4893 4897 4902 4906 4911 4915 4921 4925 4929 4936 4946 4954 4962 4970 4977 4988 4996 5006 5012 5024 5034 5043 5052 5062 5068 5080 5089 5097 5109 5122 5134 5145 5160 5170 5183 5195 5207 5216 5226 5234 5242 5248 5258 5269 5280 5288 5293 5305 5315 5323 5334 5341 5354 5364 5371 5380 5392 5402 5413 5425 5433 5437 5437 5436 5433 5425 5423 5420 5419 5420 5423 5428 5434 5439 5445 5459 5476 5492 5507 5522 5531 5540 5546 5561 5576 5590 5599 5610 5625 5634 5655 5671 5683 5699 5724 5746 5761 5775 5784 5791 5798 5805 5814 5818 5823 5825 5837 5851 5865 5866 5847 5826 5817 5800 5800 5811 5827 5837 5843 5849 5857 5873 5881 5892 5918 5962 6010 6071 6108 6115 6112 6117 6122 6137 6164 6175 6155 6134 6120 6107 6089 6077 6070 6066 6058 6048 6034 6021 6006 5993 5978 5968 5954 5942 5934 5927 5926 5921 5917 5906 5898 5891 5878 5869 5855 5843 5859 5891 5924 5954 5990 6022 6040 6065 6093 6098 6110 6120 6131 6131 6148 6190 6237 6287 6301 6286 6265 6257 6246 6237 6223 6211 6201 6196 6186 6176 6158 6141 6134 6131 6126 6118 6115 6122 6131 6145 6160 6195 6234 6277 6316 6368 6419 6434 6408 6374 6349 6337 6327 6314 6304 6288 6278 6272 6264 6254 6249 6248 6251 6258 6257 6249 6242 6235 6213 6180 6152 6139 6139 6135 6130 6121 6118 6121 6117 6113 6124 6157 6190 6216 6223 6209 6217 6243 6253 6236 6201 6199 6234 6240 6241 6240 6234 6217 6222 6248 6260 6259 6251 6250 6224 6187 6152 6112 6075 6044 6011 5985 5961 5935 5906 5869 5842 5821 5812 5792 5767 5746 5736 5741 5746 5740 5714 5673 5624 5588 5542 5497 5470 5441 5424 5411 5386 5344 5305 5285 5264 5240 5221 5204 5189 5173 5160 5149 5136 5126 5114 5111 5101 5095 5089 5081 5073 5066 5058 5047 5038 5028 5016 5011 5008 5004 5002 4999 4995 4998 5007 5010 5010 5008 5004 5003 5002 4997 4994 4985 4977 4976 4975 4971 4967 4963 4959 4956 4954 4952 4947 4944 4938 4937 4935 4934 4933 4929 4926 4923 4919 4916 4913 4909 4904 4900 4898 4893 4890 4887 4888 4886 4885 4871 4854 4845 4839 4833 4830 4826 4822 4820 4816 4815 4811 4810 4808 4804 4803 4799 4794 4793 4792 4791 4785 4781 4783 4781 4779 4776 4774 4774 4776 4775 4775 4772 4773 4771 4766 4764 4763 4759 4759 4757 4754 4750 4751 4751 4750 4746 4749 4746 4745 4746 4745 4741 4742 4738 4737 4739 4741 4745 4744 4745 4749 4753 4755 4755 4759 4759 4764 4767 4769 4775 4778 4781 4788 4792 4797 4801 4804 4809 4816 4825 4828 4835 4839 4843 4854 4864 4867 4875 4887 4901 4909 4915 4922 4929 4940 4955 4969 4984 4994 5001 5019 5033 5040 5041 5038 5033 5030 5017 4996 4970 4947 4938 4951 4966 4961 4946 4938 4939 4936 4936 4943 4944 4949 4957 4963 4974 4982 4989
4845 4839 4832 4826 4822 4818 4815 4818 4818 4824 4834 4850 4876 4888 4888 4888 4890 4882 4864 4848 4840 4837 4830 4820 4804 4787 4778 4768 4762 4763 4760 4765 4766 4768 4771 4766 4767 4766 4768 4768 4771 4773 4775 4775 4774 4777 4778 4779 4778 4782 4785 4786 4788 4791 4795 4795 4794 4798 4800 4798 4798 4803 4805 4805 4805 4806 4807 4809 4811 4815 4817 4822 4826 4826 4831 4835 4837 4843 4846 4849 4853 4857 4862 4867 4871 4876 4880 4883 4888 4892 4900 4903 4908 4914 4919 4925 4928 4934 4940 4949 4956 4964 4974 4984 4994 5001 5014 5022 5032 5040 5053 5060 5070 5077 5085 5095 5102 5112 5120 5129 5139 5149 5159 5170 5182 5194 5208 5215 5222 5233 5247 5256 5272 5281 5288 5297 5307 5317 5324 5336 5343 5352 5364 5372 5380 5393 5397 5403 5406 5407 5403 5400 5395 5390 5390 5392 5394 5397 5398 5405 5411 5417 5425 5436 5454 5464 5472 5482 5500 5512 5522 5530 5537 5554 5557 5571 5586 5599 5608 5620 5632 5643 5653 5670 5689 5704 5716 5725 5731 5741 5751 5754 5757 5763 5764 5765 5779 5791 5794 5795 5796 5796 5788 5788 5802 5828 5847 5847 5851 5862 5888 5910 5926 5964 6006 6052 6081 6088 6096 6101 6107 6114 6126 6143 6163 6166 6145 6125 6104 6089 6080 6078 6073 6065 6054 6040 6023 6010 5998 5978 5967 5950 5938 5926 5919 5916 5914 5910 5904 5897 5887 5874 5862 5858 5839 5840 5874 5912 5940 5974 6011 6042 6069 6096 6103 6108 6120 6138 6152 6181 6222 6263 6310 6321 6300 6271 6251 6239 6232 6227 6218 6211 6205 6190 6178 6157 6137 6126 6119 6111 6110 6103 6111 6120 6140 6145 6154 6185 6229 6279 6327 6387 6414 6397 6359 6342 6326 6316 6306 6298 6287 6274 6267 6257 6245 6231 6221 6211 6207 6204 6202 6199 6199 6184 6154 6135 6128 6128 6125 6115 6107 6107 6107 6102 6100 6087 6100 6124 6146 6155 6153 6161 6183 6187 6175 6146 6144 6167 6172 6169 6174 6172 6153 6159 6179 6193 6192 6189 6191 6194 6180 6153 6124 6088 6065 6046 6023 5999 5972 5948 5909 5878 5853 5832 5816 5803 5798 5793 5781 5759 5740 5711 5681 5657 5626 5583 5542 5506 5475 5450 5425 5386 5353 5317 5291 5270 5237 5215 5204 5189 5175 5163 5153 5141 5131 5121 5113 5107 5103 5101 5087 5077 5065 5058 5046 5032 5022 5019 5015 5011 5007 5003 5001 4996 4994 4992 4992 4994 4996 4995 4992 4991 4988 4984 4977 4974 4969 4967 4966 4963 4960 4957 4951 4949 4948 4944 4944 4939 4935 4934 4933 4931 4929 4925 4921 4917 4914 4910 4906 4903 4903 4898 4892 4889 4888 4888 4888 4885 4874 4858 4850 4840 4829 4827 4825 4824 4820 4817 4813 4811 4808 4807 4806 4801 4799 4796 4792 4791 4788 4785 4780 4780 4779 4776 4776 4771 4770 4771 4771 4772 4771 4774 4768 4762 4765 4760 4755 4756 4756 4751 4750 4750 4749 4748 4746 4750 4748 4746 4743 4743 4743 4742 4739 4740 4739 4741 4742 4741 4744 4745 4749 4753 4755 4758 4761 4766 4766 4767 4771 4774 4780 4786 4789 4795 4802 4805 4808 4816 4823 4824 4832 4836 4844 4855 4860 4865 4873 4885 4902 4917 4924 4936 4944 4949 4951 4953 4966 4979 4995 5019 5034 5034 5028 5021 5019 5014 5005 4989 4969 4944 4924 4932 4934 4927 4925 4928 4934 4933 4940 4950 4956 4962 4972 4976 4988 4996 5000
4846 4840 4835 4827 4817 4809 4805 4806 4806 4812 4822 4837 4863 4880 4886 4886 4886 4878 4863 4847 4842 4838 4836 4829 4819 4795 4776 4771 4759 4761 4764 4766 4762 4765 4766 4767 4768 4770 4769 4769 4773 4774 4775 4772 4774 4776 4775 4779 4780 4784 4787 4791 4789 4789 4793 4790 4792 4796 4795 4796 4800 4802 4804 4804 4804 4804 4808 4808 4810 4815 4817 4819 4824 4827 4830 4833 4835 4842 4846 4850 4856 4858 4863 4868 4872 4876 4879 4885 4889 4895 4903 4906 4915 4916 4921 4927 4932 4939 4944 4950 4959 4968 4976 4985 4995 5007 5018 5027 5037 5044 5055 5062 5067 5073 5077 5083 5087 5095 5100 5108 5121 5130 5137 5152 5165 5178 5192 5203 5214 5226 5239 5249 5261 5275 5281 5289 5301 5309 5312 5320 5329 5338 5348 5354 5360 5362 5366 5365 5366 5364 5364 5363 5364 5365 5367 5369 5376 5381 5384 5391 5398 5408 5418 5428 5441 5452 5460 5472 5484 5498 5508 5518 5524 5531 5539 5549 5561 5573 5584 5598 5600 5614 5622 5630 5644 5659 5671 5685 5698 5704 5714 5718 5721 5727 5730 5723 5728 5734 5740 5748 5760 5771 5775 5780 5796 5827 5846 5850 5858 5877 5914 5958 5990 6019 6057 6074 6085 6094 6099 6106 6109 6117 6124 6133 6147 6173 6171 6147 6122 6104 6090 6083 6082 6075 6058 6042 6026 6017 6001 5982 5962 5941 5931 5924 5915 5910 5906 5902 5896 5890 5881 5871 5856 5841 5832 5822 5843 5879 5909 5940 5976 6007 6036 6062 6081 6110 6136 6155 6174 6200 6234 6268 6304 6333 6324 6294 6270 6247 6235 6229 6225 6214 6205 6190 6173 6150 6126 6116 6107 6104 6103 6097 6098 6110 6132 6147 6154 6163 6196 6242 6297 6364 6389 6378 6352 6338 6329 6321 6310 6300 6291 6278 6267 6254 6242 6222 6209 6198 6188 6178 6172 6168 6161 6154 6132 6121 6114 6112 6110 6102 6096 6091 6085 6077 6069 6062 6065 6062 6072 6089 6093 6102 6117 6121 6111 6093 6089 6105 6106 6109 6102 6105 6090 6096 6120 6137 6126 6123 6132 6136 6127 6118 6097 6062 6053 6070 6069 6050 6014 5980 5953 5917 5902 5888 5875 5861 5841 5814 5785 5754 5728 5698 5662 5628 5598 5565 5529 5494 5466 5436 5407 5373 5346 5312 5284 5261 5238 5223 5205 5190 5173 5160 5153 5143 5132 5125 5121 5121 5117 5104 5090 5077 5065 5056 5048 5036 5028 5022 5019 5015 5012 5008 5005 5000 4996 4991 4986 4983 4981 4982 4984 4981 4978 4976 4972 4966 4965 4962 4961 4960 4955 4952 4946 4945 4944 4941 4940 4940 4936 4934 4933 4929 4929 4923 4919 4914 4910 4908 4905 4899 4898 4896 4893 4890 4887 4885 4883 4884 4875 4859 4845 4836 4828 4828 4826 4822 4817 4814 4812 4808 4807 4805 4803 4800 4797 4793 4791 4788 4785 4781 4779 4777 4774 4772 4772 4767 4768 4769 4769 4769 4767 4765 4762 4759 4759 4760 4756 4755 4755 4754 4751 4749 4749 4748 4748 4747 4745 4744 4742 4744 4741 4739 4738 4741 4738 4740 4742 4743 4743 4743 4750 4749 4750 4755 4759 4764 4764 4767 4772 4773 4782 4784 4787 4793 4800 4806 4809 4815 4818 4823 4830 4836 4844 4851 4856 4862 4866 4883 4898 4914 4928 4941 4957 4962 4956 4944 4952 4972 4993 5014 5017 5010 4998 4990 4987 4982 4972 4962 4953 4935 4921 4918 4914 4918 4922 4930 4936 4940 4950 4962 4974 4981 4985 4990 4994 5003 5012
4845 4841 4833 4826 4812 4804 4801 4800 4800 4802 4807 4820 4836 4854 4871 4883 4884 4877 4861 4840 4831 4832 4831 4830 4818 4796 4777 4767 4762 4758 4766 4760 4762 4764 4767 4767 4769 4769 4767 4770 4774 4776 4777 4774 4774 4779 4780 4780 4783 4785 4785 4787 4788 4788 4787 4789 4791 4795 4794 4798 4799 4801 4801 4801 4802 4802 4804 4805 4810 4814 4816 4819 4822 4825 4831 4834 4836 4841 4846 4850 4855 4860 4865 4867 4872 4878 4882 4887 4892 4898 4903 4908 4914 4921 4926 4930 4935 4940 4947 4953 4959 4967 4974 4984 4994 5005 5012 5020 5028 5034 5039 5041 5046 5051 5054 5060 5065 5074 5083 5090 5098 5106 5115 5125 5141 5161 5181 5190 5200 5211 5221 5231 5240 5252 5260 5268 5272 5279 5283 5290 5294 5300 5307 5313 5316 5320 5328 5326 5328 5330 5335 5337 5339 5341 5347 5354 5360 5368 5375 5385 5393 5407 5418 5425 5438 5447 5457 5467 5478 5488 5496 5500 5502 5513 5521 5528 5535 5552 5565 5570 5576 5589 5602 5611 5619 5630 5646 5657 5681 5686 5693 5699 5711 5711 5710 5709 5706 5708 5712 5723 5735 5750 5765 5781 5804 5830 5848 5863 5875 5888 5920 5975 6007 6035 6064 6079 6086 6093 6097 6102 6106 6113 6120 6125 6138 6165 6196 6190 6169 6148 6130 6115 6101 6090 6075 6051 6040 6034 6025 6005 5984 5955 5930 5913 5905 5903 5896 5893 5890 5884 5879 5870 5853 5832 5825 5813 5812 5834 5866 5891 5922 5953 5983 6008 6040 6076 6107 6131 6151 6159 6182 6223 6257 6309 6334 6323 6298 6273 6250 6237 6225 6212 6193 6164 6138 6118 6104 6101 6095 6092 6090 6084 6083 6096 6125 6152 6164 6169 6186 6222 6279 6344 6371 6358 6343 6334 6327 6319 6313 6299 6290 6278 6263 6251 6234 6219 6204 6193 6185 6172 6164 6156 6147 6136 6124 6116 6107 6103 6097 6090 6082 6077 6067 6060 6052 6041 6037 6030 6020 6028 6035 6040 6049 6052 6048 6039 6036 6047 6039 6039 6037 6044 6031 6038 6060 6066 6059 6054 6066 6070 6059 6055 6048 6007 6003 6014 6043 6048 6005 5976 5959 5953 5942 5937 5920 5887 5850 5813 5771 5733 5704 5673 5634 5595 5557 5523 5494 5461 5434 5406 5377 5353 5328 5307 5284 5264 5245 5230 5209 5193 5177 5159 5150 5144 5138 5135 5141 5129 5124 5107 5093 5078 5064 5054 5045 5037 5032 5028 5023 5020 5014 5012 5009 5002 4998 4993 4988 4984 4978 4975 4973 4971 4969 4970 4966 4963 4959 4958 4954 4953 4949 4946 4943 4939 4938 4938 4937 4937 4934 4931 4929 4925 4920 4917 4917 4914 4908 4906 4905 4901 4898 4894 4890 4887 4885 4882 4881 4881 4874 4852 4838 4831 4825 4826 4820 4818 4815 4810 4808 4807 4806 4803 4799 4796 4794 4792 4788 4785 4780 4777 4778 4776 4773 4772 4769 4767 4765 4769 4771 4768 4766 4768 4766 4762 4761 4759 4758 4755 4752 4752 4750 4750 4750 4748 4745 4741 4743 4745 4743 4743 4742 4740 4740 4738 4738 4742 4743 4742 4740 4743 4745 4748 4748 4755 4761 4760 4762 4767 4770 4774 4778 4782 4788 4793 4804 4808 4813 4815 4816 4821 4831 4837 4842 4845 4850 4856 4864 4875 4892 4909 4924 4943 4961 4968 4946 4934 4940 4957 4977 4987 4985 4977 4966 4959 4954 4950 4941 4933 4926 4916 4910 4910 4910 4917 4927 4935 4940 4946 4948 4960 4969 4989 4997 5003 5008 5018 5020
4847 4841 4835 4826 4812 4801 4798 4793 4792 4794 4796 4803 4812 4824 4838 4851 4859 4856 4843 4830 4820 4821 4822 4822 4814 4799 4778 4767 4764 4763 4761 4758 4764 4765 4763 4764 4769 4772 4769 4769 4772 4777 4777 4775 4777 4779 4780 4783 4782 4784 4783 4783 4786 4787 4787 4789 4790 4794 4795 4797 4798 4800 4799 4800 4801 4802 4803 4803 4807 4812 4815 4817 4822 4825 4828 4832 4834 4839 4844 4850 4854 4859 4864 4868 4872 4878 4882 4888 4894 4899 4905 4910 4915 4919 4926 4930 4937 4944 4948 4952 4960 4966 4971 4977 4982 4991 4998 5005 5011 5017 5024 5028 5036 5043 5054 5060 5068 5076 5081 5090 5101 5112 5122 5130 5133 5139 5148 5159 5171 5182 5195 5204 5213 5224 5230 5237 5243 5247 5253 5255 5260 5265 5270 5275 5283 5288 5292 5298 5300 5303 5308 5316 5323 5329 5337 5345 5354 5363 5373 5379 5389 5401 5409 5414 5426 5442 5448 5452 5463 5473 5483 5492 5497 5509 5518 5528 5536 5541 5549 5565 5576 5587 5594 5597 5604 5616 5633 5650 5662 5671 5677 5687 5689 5694 5697 5697 5699 5701 5708 5717 5727 5744 5763 5786 5809 5832 5854 5865 5868 5883 5919 5974 6008 6033 6058 6072 6081 6087 6093 6097 6105 6111 6123 6128 6145 6166 6199 6214 6210 6192 6182 6167 6145 6131 6119 6094 6080 6068 6066 6058 6027 5983 5950 5917 5898 5896 5893 5888 5883 5877 5868 5860 5851 5833 5811 5804 5802 5806 5825 5844 5869 5897 5924 5958 5986 6025 6056 6070 6087 6104 6133 6178 6230 6272 6322 6345 6333 6302 6277 6247 6211 6173 6134 6096 6083 6074 6075 6081 6075 6074 6074 6071 6072 6074 6106 6135 6164 6177 6191 6212 6260 6310 6334 6339 6338 6334 6329 6326 6314 6302 6281 6262 6244 6232 6221 6211 6203 6191 6177 6165 6157 6146 6138 6129 6119 6108 6101 6093 6086 6078 6066 6059 6052 6046 6035 6022 6016 6003 5988 5982 5988 5988 5988 5989 5988 5985 5986 5982 5976 5975 5973 5975 5972 5981 5995 5998 5995 5986 5997 6003 5992 5982 5980 5949 5933 5940 5967 5976 5953 5920 5906 5917 5921 5925 5921 5896 5858 5824 5779 5735 5703 5659 5625 5591 5567 5538 5511 5481 5456 5436 5411 5383 5352 5326 5301 5278 5260 5235 5215 5198 5182 5165 5156 5152 5148 5145 5140 5131 5120 5105 5088 5075 5066 5055 5046 5040 5035 5031 5027 5024 5017 5013 5009 5004 5000 4994 4992 4989 4983 4978 4971 4966 4964 4965 4964 4962 4960 4955 4952 4949 4946 4945 4941 4937 4937 4935 4931 4930 4928 4926 4926 4923 4918 4912 4910 4909 4905 4902 4900 4896 4894 4892 4887 4885 4882 4881 4876 4877 4863 4842 4829 4824 4823 4821 4818 4816 4813 4810 4806 4803 4801 4800 4797 4792 4791 4787 4787 4784 4781 4776 4774 4773 4772 4771 4768 4770 4765 4768 4769 4766 4767 4768 4765 4762 4760 4757 4756 4756 4754 4753 4750 4750 4748 4748 4748 4747 4744 4745 4743 4741 4739 4738 4739 4738 4741 4737 4738 4739 4738 4741 4745 4752 4752 4755 4759 4762 4767 4772 4772 4774 4780 4780 4786 4794 4803 4807 4815 4821 4823 4826 4833 4839 4837 4842 4843 4849 4857 4864 4880 4900 4916 4935 4948 4951 4935 4924 4929 4944 4959 4961 4956 4949 4940 4932 4925 4920 4914 4908 4904 4903 4903 4907 4915 4929 4944 4952 4956 4960 4959 4962 4965 4978 4996 5009 5015 5023 5027
4849 4842 4839 4829 4814 4800 4793 4789 4787 4786 4785 4789 4794 4800 4809 4818 4824 4825 4820 4814 4812 4812 4812 4815 4812 4797 4778 4765 4762 4763 4761 4760 4762 4763 4763 4763 4764 4765 4766 4769 4770 4775 4774 4771 4772 4775 4777 4780 4780 4783 4783 4784 4784 4785 4787 4791 4789 4790 4789 4792 4795 4798 4795 4797 4799 4802 4806 4807 4807 4810 4812 4816 4819 4825 4827 4830 4833 4838 4844 4850 4854 4857 4864 4868 4874 4877 4883 4886 4892 4898 4904 4910 4914 4919 4925 4931 4936 4942 4947 4953 4961 4966 4973 4979 4987 4996 5000 5007 5017 5023 5032 5041 5052 5063 5073 5080 5090 5101 5106 5115 5122 5127 5139 5152 5160 5152 5147 5148 5154 5162 5169 5176 5186 5197 5202 5206 5213 5220 5225 5228 5236 5242 5248 5254 5258 5267 5274 5283 5288 5302 5312 5319 5324 5334 5345 5354 5361 5370 5378 5385 5392 5407 5422 5435 5449 5462 5475 5482 5487 5492 5501 5512 5523 5534 5540 5543 5548 5556 5561 5576 5591 5602 5610 5610 5614 5618 5625 5633 5645 5652 5660 5664 5667 5675 5680 5686 5695 5701 5701 5708 5720 5733 5748 5766 5787 5814 5834 5846 5855 5875 5929 5977 5999 6022 6047 6060 6072 6078 6086 6088 6096 6107 6123 6137 6154 6178 6216 6227 6218 6205 6190 6171 6143 6135 6158 6170 6167 6156 6136 6125 6078 6034 5996 5956 5913 5887 5882 5878 5875 5865 5855 5847 5842 5830 5812 5805 5801 5792 5795 5803 5823 5845 5868 5903 5943 5974 5996 6012 6038 6068 6099 6149 6205 6245 6281 6317 6340 6318 6277 6232 6188 6140 6092 6053 6030 6034 6039 6052 6059 6061 6063 6060 6049 6055 6104 6138 6153 6170 6192 6209 6234 6300 6327 6330 6335 6339 6335 6329 6314 6289 6260 6241 6225 6215 6211 6208 6200 6182 6162 6154 6150 6142 6133 6125 6115 6106 6093 6085 6080 6071 6064 6049 6041 6034 6021 6011 5997 5988 5974 5963 5957 5949 5939 5934 5929 5929 5924 5916 5912 5906 5909 5910 5909 5914 5926 5931 5927 5922 5928 5933 5931 5915 5898 5877 5861 5870 5862 5866 5860 5843 5841 5852 5851 5860 5874 5879 5864 5835 5802 5765 5728 5699 5666 5637 5617 5588 5561 5533 5508 5484 5451 5412 5370 5338 5310 5282 5259 5238 5220 5202 5188 5178 5165 5155 5146 5136 5127 5116 5106 5096 5088 5077 5069 5059 5050 5046 5041 5035 5029 5026 5021 5015 5009 5006 5002 5003 5004 4997 4991 4985 4975 4968 4964 4960 4958 4957 4957 4954 4953 4948 4948 4945 4943 4940 4937 4937 4931 4926 4925 4921 4921 4917 4915 4912 4908 4906 4904 4900 4897 4895 4891 4889 4884 4882 4879 4875 4872 4867 4852 4837 4826 4822 4818 4816 4814 4810 4809 4806 4804 4800 4797 4795 4794 4789 4788 4788 4787 4783 4781 4776 4774 4775 4772 4771 4770 4769 4768 4767 4762 4765 4766 4766 4764 4762 4759 4759 4758 4756 4755 4752 4751 4750 4749 4749 4747 4748 4744 4744 4744 4742 4740 4739 4737 4737 4739 4739 4742 4737 4742 4744 4748 4750 4752 4754 4759 4765 4768 4771 4777 4780 4784 4787 4790 4799 4803 4812 4819 4826 4829 4832 4834 4839 4839 4841 4836 4842 4846 4857 4873 4888 4903 4919 4932 4931 4919 4911 4916 4931 4941 4941 4932 4924 4915 4911 4903 4897 4895 4893 4897 4902 4905 4912 4929 4947 4966 4977 4980 4978 4985 4981 4971 4974 4993 5004 5010 5017 5026
4851 4845 4838 4832 4814 4795 4784 4782 4780 4777 4781 4781 4781 4783 4786 4792 4797 4800 4799 4798 4799 4798 4802 4804 4801 4791 4774 4764 4763 4763 4760 4760 4762 4763 4761 4761 4761 4762 4766 4767 4769 4770 4772 4773 4773 4775 4776 4781 4780 4781 4782 4784 4784 4785 4788 4789 4787 4789 4790 4792 4792 4794 4795 4795 4795 4800 4804 4804 4805 4808 4811 4815 4819 4824 4827 4830 4834 4838 4843 4848 4851 4856 4861 4867 4873 4875 4881 4887 4892 4896 4901 4908 4912 4918 4924 4931 4936 4942 4952 4959 4964 4972 4979 4987 4994 5002 5009 5015 5027 5033 5042 5051 5067 5080 5089 5099 5109 5117 5128 5135 5147 5151 5160 5167 5180 5186 5179 5177 5179 5178 5178 5181 5185 5191 5193 5200 5207 5213 5227 5235 5245 5249 5251 5262 5265 5273 5282 5289 5297 5315 5337 5342 5345 5350 5354 5364 5376 5394 5408 5421 5436 5449 5458 5465 5478 5498 5514 5518 5520 5527 5537 5542 5559 5569 5571 5571 5570 5570 5576 5589 5605 5611 5621 5632 5642 5649 5649 5642 5640 5646 5650 5654 5659 5666 5673 5680 5687 5698 5704 5711 5719 5728 5737 5750 5770 5788 5805 5823 5840 5874 5922 5965 5990 6007 6031 6045 6057 6068 6070 6073 6078 6082 6108 6134 6164 6206 6220 6229 6223 6192 6160 6126 6101 6093 6117 6146 6179 6207 6203 6170 6122 6079 6037 5986 5944 5900 5872 5866 5864 5857 5845 5835 5831 5817 5799 5796 5796 5787 5781 5783 5793 5815 5837 5853 5886 5922 5944 5964 6001 6044 6089 6129 6177 6207 6223 6253 6283 6297 6254 6205 6160 6104 6062 6017 6001 6011 6017 6031 6043 6047 6051 6049 6041 6048 6086 6120 6152 6162 6182 6210 6247 6298 6327 6337 6338 6338 6335 6324 6298 6271 6248 6239 6223 6212 6206 6199 6189 6175 6159 6151 6148 6140 6131 6125 6114 6102 6089 6085 6073 6064 6060 6050 6037 6025 6015 6004 5995 5987 5972 5961 5949 5939 5927 5915 5901 5888 5881 5869 5853 5848 5846 5843 5848 5856 5859 5858 5858 5860 5854 5861 5865 5849 5835 5813 5800 5800 5796 5786 5783 5784 5780 5786 5788 5789 5800 5809 5813 5804 5788 5768 5736 5715 5692 5667 5643 5616 5588 5562 5533 5501 5467 5428 5382 5335 5309 5280 5256 5234 5219 5202 5191 5179 5164 5151 5143 5134 5129 5121 5115 5106 5091 5079 5070 5064 5058 5051 5043 5039 5036 5029 5024 5020 5013 5008 5007 5006 5007 5001 4994 4990 4983 4972 4966 4961 4955 4952 4950 4948 4947 4948 4947 4943 4942 4938 4938 4936 4930 4927 4923 4922 4917 4913 4912 4910 4907 4905 4903 4899 4897 4892 4889 4886 4881 4880 4877 4874 4868 4861 4846 4834 4825 4818 4816 4813 4812 4809 4806 4802 4803 4802 4798 4796 4791 4790 4789 4785 4786 4782 4780 4778 4776 4775 4771 4770 4767 4767 4771 4768 4765 4768 4768 4765 4764 4763 4762 4759 4758 4757 4753 4754 4756 4752 4748 4749 4746 4748 4743 4744 4743 4744 4740 4738 4739 4737 4736 4741 4742 4739 4742 4743 4746 4751 4754 4756 4759 4765 4768 4776 4777 4783 4787 4795 4802 4801 4809 4819 4825 4834 4835 4831 4832 4836 4834 4829 4829 4835 4840 4853 4864 4881 4889 4905 4915 4916 4901 4897 4906 4920 4926 4916 4906 4900 4894 4891 4887 4885 4886 4892 4896 4904 4912 4919 4928 4948 4971 4984 4998 5003 5005 5004 4993 4982 4987 4992 5006 5017 5029
4850 4842 4836 4828 4806 4785 4778 4774 4769 4768 4770 4771 4769 4768 4774 4775 4781 4784 4789 4790 4789 4787 4787 4789 4789 4780 4767 4765 4763 4761 4760 4760 4762 4759 4757 4759 4761 4762 4765 4767 4768 4768 4766 4772 4774 4773 4777 4778 4776 4779 4781 4782 4783 4785 4788 4787 4786 4788 4791 4792 4791 4791 4792 4793 4794 4798 4800 4801 4803 4805 4809 4813 4818 4822 4825 4827 4832 4837 4841 4845 4849 4855 4859 4865 4869 4875 4880 4886 4891 4895 4899 4904 4909 4917 4925 4933 4938 4943 4951 4962 4971 4977 4988 4997 5005 5014 5019 5026 5033 5048 5056 5065 5076 5089 5102 5113 5121 5136 5150 5157 5166 5173 5180 5186 5197 5207 5210 5215 5215 5210 5210 5209 5206 5207 5210 5219 5221 5230 5239 5245 5253 5261 5270 5279 5285 5293 5305 5306 5315 5328 5348 5364 5363 5365 5367 5376 5390 5412 5433 5453 5465 5472 5492 5512 5529 5539 5556 5559 5557 5566 5576 5588 5602 5609 5614 5609 5603 5602 5605 5612 5621 5626 5635 5651 5655 5658 5662 5659 5655 5658 5664 5670 5671 5668 5673 5684 5693 5703 5716 5727 5735 5742 5744 5753 5760 5772 5781 5801 5826 5855 5890 5927 5969 5995 6006 6027 6046 6055 6055 6058 6057 6051 6095 6140 6155 6149 6163 6185 6192 6164 6125 6092 6062 6058 6071 6092 6131 6176 6215 6221 6168 6117 6069 6021 5976 5936 5890 5861 5849 5848 5835 5823 5815 5802 5786 5782 5782 5782 5773 5769 5769 5781 5806 5826 5844 5872 5902 5932 5977 6016 6058 6095 6123 6147 6168 6199 6235 6256 6222 6185 6134 6081 6043 5997 5990 6000 6006 6018 6027 6032 6034 6036 6032 6042 6068 6089 6122 6155 6190 6229 6279 6317 6348 6352 6351 6342 6327 6302 6276 6256 6248 6243 6228 6213 6202 6194 6186 6177 6165 6152 6144 6138 6130 6123 6115 6102 6091 6080 6074 6066 6054 6045 6036 6021 6013 5998 5988 5977 5964 5956 5948 5932 5919 5904 5890 5873 5860 5844 5824 5811 5801 5792 5792 5791 5783 5784 5790 5793 5789 5789 5786 5785 5765 5742 5733 5728 5723 5717 5716 5711 5706 5711 5724 5719 5733 5734 5743 5743 5736 5720 5695 5673 5656 5635 5614 5600 5569 5538 5504 5467 5438 5409 5374 5330 5296 5269 5249 5232 5214 5201 5189 5175 5164 5155 5148 5145 5137 5125 5117 5109 5091 5078 5072 5067 5060 5054 5048 5044 5038 5033 5027 5021 5016 5010 5010 5006 5005 5001 4998 4987 4982 4972 4970 4964 4960 4956 4952 4946 4944 4942 4941 4939 4940 4937 4934 4934 4933 4925 4926 4923 4918 4916 4912 4910 4907 4904 4902 4897 4895 4893 4887 4884 4881 4877 4872 4867 4863 4856 4841 4830 4825 4821 4816 4812 4811 4809 4804 4800 4800 4799 4797 4797 4793 4790 4788 4786 4783 4781 4779 4777 4778 4774 4770 4771 4769 4769 4773 4768 4767 4765 4765 4767 4765 4765 4763 4760 4759 4755 4756 4753 4754 4752 4750 4746 4746 4745 4742 4743 4744 4744 4741 4741 4740 4737 4736 4741 4742 4741 4742 4745 4748 4750 4753 4753 4758 4764 4768 4774 4778 4784 4794 4801 4803 4806 4813 4818 4825 4832 4831 4823 4819 4819 4820 4820 4826 4831 4836 4844 4857 4870 4884 4899 4906 4901 4884 4885 4902 4916 4909 4891 4882 4878 4879 4876 4878 4884 4888 4896 4901 4915 4931 4940 4939 4942 4962 4987 5009 5014 5016 5018 5009 4996 4989 4992 5005 5021 5035
4840 4831 4823 4812 4790 4772 4768 4765 4762 4760 4761 4763 4765 4766 4769 4771 4772 4776 4782 4777 4777 4779 4775 4776 4782 4774 4765 4765 4762 4763 4760 4762 4762 4758 4758 4763 4762 4767 4764 4765 4767 4768 4767 4772 4769 4774 4777 4778 4778 4780 4780 4779 4781 4784 4787 4785 4787 4788 4788 4790 4791 4789 4789 4790 4793 4796 4796 4797 4801 4804 4809 4814 4817 4818 4823 4827 4830 4832 4838 4843 4847 4853 4855 4861 4866 4871 4877 4882 4887 4892 4896 4902 4910 4916 4921 4929 4939 4948 4956 4966 4975 4986 4996 5002 5013 5023 5030 5036 5043 5054 5064 5077 5089 5097 5108 5118 5132 5144 5157 5167 5176 5184 5195 5201 5213 5217 5225 5231 5235 5233 5233 5232 5232 5233 5235 5239 5242 5246 5256 5260 5270 5276 5293 5302 5308 5320 5324 5330 5339 5356 5374 5382 5384 5390 5393 5400 5415 5434 5459 5488 5505 5529 5552 5566 5583 5592 5598 5599 5603 5611 5622 5640 5656 5663 5660 5653 5638 5636 5635 5634 5637 5643 5649 5657 5668 5670 5663 5667 5672 5674 5678 5683 5686 5684 5682 5688 5700 5714 5726 5733 5740 5745 5750 5758 5761 5768 5782 5805 5827 5845 5864 5887 5935 5975 5984 6006 6023 6035 6042 6038 6032 6033 6081 6122 6114 6101 6103 6133 6155 6131 6086 6049 6027 6019 6033 6059 6096 6131 6191 6231 6213 6154 6097 6051 6004 5961 5925 5887 5852 5833 5823 5809 5805 5792 5775 5766 5763 5762 5765 5760 5757 5758 5776 5802 5813 5834 5862 5893 5929 5974 6014 6048 6074 6090 6114 6154 6192 6195 6175 6145 6111 6067 6017 5977 5976 5992 5996 6002 6007 6013 6014 6018 6027 6046 6077 6088 6100 6125 6177 6227 6277 6321 6382 6383 6373 6347 6313 6283 6271 6263 6257 6246 6234 6213 6197 6188 6182 6174 6164 6155 6148 6140 6131 6127 6118 6104 6091 6082 6071 6060 6047 6040 6030 6014 6005 6000 5987 5976 5963 5953 5936 5920 5911 5898 5883 5868 5853 5843 5820 5803 5792 5774 5761 5748 5737 5729 5728 5731 5729 5726 5720 5704 5686 5677 5663 5654 5647 5645 5643 5645 5649 5648 5643 5654 5659 5666 5667 5677 5675 5656 5638 5621 5603 5581 5565 5566 5548 5493 5444 5413 5388 5368 5344 5321 5292 5261 5244 5224 5210 5197 5183 5171 5162 5155 5145 5137 5128 5119 5109 5100 5090 5083 5075 5070 5065 5058 5049 5044 5039 5035 5030 5022 5016 5011 5007 5002 4998 4993 4989 4984 4980 4974 4970 4967 4961 4958 4954 4951 4947 4941 4937 4934 4936 4936 4933 4931 4930 4926 4926 4922 4917 4917 4912 4910 4907 4905 4900 4896 4892 4887 4885 4883 4881 4877 4870 4865 4862 4850 4838 4830 4823 4819 4817 4814 4810 4809 4804 4802 4798 4796 4794 4793 4791 4789 4786 4784 4783 4782 4779 4778 4774 4774 4774 4772 4770 4772 4770 4768 4767 4766 4766 4766 4763 4762 4764 4760 4758 4757 4754 4753 4751 4749 4748 4746 4747 4745 4741 4743 4743 4742 4741 4737 4738 4735 4738 4738 4740 4743 4746 4747 4748 4751 4753 4754 4756 4757 4762 4767 4774 4781 4788 4797 4799 4801 4807 4808 4814 4817 4814 4806 4806 4809 4811 4814 4821 4825 4832 4840 4850 4862 4880 4890 4895 4885 4874 4881 4897 4894 4878 4869 4868 4868 4874 4876 4881 4888 4895 4898 4914 4931 4950 4967 4969 4959 4962 4978 5000 5017 5021 5024 5017 5008 5001 4997 5005 5022 5040
4826 4813 4803 4787 4770 4761 4758 4755 4756 4754 4755 4756 4763 4768 4767 4767 4767 4770 4772 4773 4770 4775 4776 4782 4783 4775 4766 4762 4761 4759 4759 4760 4761 4761 4762 4760 4762 4765 4762 4762 4766 4766 4768 4773 4770 4772 4778 4777 4777 4778 4779 4778 4781 4783 4784 4787 4788 4789 4788 4789 4788 4788 4787 4789 4791 4795 4797 4799 4802 4804 4810 4813 4816 4818 4820 4825 4829 4832 4837 4842 4847 4850 4855 4860 4865 4870 4876 4879 4883 4888 4894 4899 4904 4912 4919 4930 4940 4948 4957 4965 4977 4988 4999 5007 5018 5026 5034 5043 5049 5057 5069 5077 5084 5096 5106 5116 5126 5139 5153 5168 5179 5189 5199 5212 5223 5229 5237 5246 5247 5247 5251 5251 5258 5265 5264 5262 5268 5269 5279 5286 5294 5306 5316 5321 5332 5345 5349 5352 5364 5381 5396 5400 5410 5412 5420 5435 5451 5473 5504 5534 5548 5576 5610 5631 5644 5649 5653 5658 5666 5673 5682 5700 5713 5714 5703 5693 5679 5674 5668 5671 5674 5675 5684 5694 5696 5687 5678 5676 5683 5692 5698 5700 5697 5698 5699 5700 5710 5723 5734 5748 5745 5744 5745 5752 5762 5774 5795 5821 5834 5841 5853 5868 5894 5926 5956 5975 5999 6010 6018 6019 6017 6023 6066 6087 6071 6071 6087 6105 6123 6113 6072 6031 6004 5992 6001 6026 6060 6105 6150 6195 6223 6193 6136 6087 6034 5994 5959 5922 5887 5852 5821 5794 5788 5776 5764 5756 5746 5737 5735 5739 5746 5749 5755 5770 5784 5803 5811 5847 5883 5924 5960 5994 6022 6041 6073 6111 6139 6131 6114 6096 6070 6028 5980 5962 5964 5974 5981 5984 5988 5992 5994 6006 6025 6048 6080 6102 6113 6125 6157 6199 6265 6340 6396 6400 6387 6348 6314 6291 6281 6274 6269 6252 6236 6212 6198 6187 6178 6174 6170 6158 6147 6142 6137 6127 6116 6110 6099 6087 6075 6061 6049 6041 6029 6013 6006 5994 5987 5972 5957 5948 5934 5922 5908 5897 5888 5869 5857 5841 5825 5808 5795 5780 5757 5735 5709 5694 5688 5684 5677 5672 5660 5647 5633 5615 5602 5596 5584 5581 5581 5579 5574 5575 5571 5575 5588 5592 5581 5581 5590 5583 5557 5532 5514 5503 5488 5481 5452 5410 5379 5366 5353 5333 5316 5304 5283 5250 5226 5214 5200 5189 5175 5166 5157 5147 5141 5131 5124 5117 5112 5102 5095 5086 5076 5072 5064 5059 5052 5046 5040 5034 5029 5023 5018 5013 5007 5001 4996 4991 4989 4981 4979 4975 4972 4968 4963 4959 4956 4950 4947 4942 4935 4933 4931 4931 4931 4929 4930 4926 4925 4922 4916 4916 4911 4909 4904 4904 4899 4896 4890 4888 4885 4883 4881 4876 4867 4861 4856 4843 4834 4828 4826 4824 4819 4813 4810 4810 4805 4803 4798 4799 4797 4791 4791 4788 4786 4786 4782 4781 4779 4777 4776 4774 4772 4770 4770 4772 4770 4770 4767 4767 4765 4764 4764 4763 4763 4760 4760 4755 4754 4754 4752 4748 4748 4745 4746 4743 4740 4743 4741 4739 4739 4738 4738 4739 4739 4736 4736 4740 4746 4746 4749 4750 4752 4755 4757 4758 4759 4761 4770 4774 4777 4782 4788 4789 4796 4798 4799 4803 4802 4801 4801 4807 4808 4813 4815 4819 4829 4834 4842 4851 4868 4874 4876 4874 4864 4870 4876 4870 4861 4864 4868 4872 4876 4880 4885 4889 4896 4905 4923 4943 4966 4991 4994 4983 4974 4981 4994 5007 5020 5028 5030 5028 5020 5013 5012 5019 5031
4808 4793 4781 4770 4759 4753 4751 4750 4749 4753 4752 4756 4765 4767 4765 4759 4759 4763 4766 4766 4772 4778 4784 4789 4797 4782 4772 4765 4762 4761 4762 4761 4763 4759 4759 4762 4765 4764 4763 4764 4763 4764 4769 4769 4771 4773 4775 4776 4777 4777 4778 4778 4784 4784 4785 4788 4786 4785 4787 4788 4788 4787 4786 4789 4791 4795 4796 4798 4801 4804 4807 4809 4813 4817 4821 4823 4827 4832 4836 4839 4842 4848 4854 4857 4861 4865 4870 4875 4878 4883 4891 4898 4904 4910 4916 4925 4935 4944 4951 4960 4973 4983 4995 5001 5009 5019 5028 5037 5042 5052 5066 5072 5079 5089 5098 5109 5118 5132 5143 5156 5169 5185 5196 5211 5221 5231 5238 5249 5254 5261 5266 5270 5275 5281 5285 5290 5299 5309 5315 5322 5329 5338 5345 5354 5365 5372 5379 5391 5401 5408 5419 5433 5438 5444 5449 5472 5493 5522 5548 5577 5596 5614 5650 5686 5703 5710 5711 5716 5733 5740 5749 5755 5751 5740 5729 5723 5705 5712 5722 5734 5740 5728 5736 5730 5724 5715 5717 5732 5735 5744 5739 5740 5744 5741 5735 5732 5734 5743 5761 5761 5745 5740 5744 5749 5759 5780 5816 5843 5848 5847 5848 5868 5889 5905 5930 5952 5977 5995 6001 6006 6012 6029 6050 6055 6056 6075 6090 6098 6117 6119 6073 6032 6002 5987 5983 5993 6020 6063 6107 6158 6194 6183 6147 6114 6075 6035 6001 5961 5922 5885 5850 5808 5782 5768 5760 5754 5744 5728 5711 5709 5719 5732 5738 5749 5760 5779 5786 5806 5840 5871 5914 5946 5973 5998 6037 6073 6085 6071 6054 6036 6011 5982 5951 5947 5955 5962 5968 5968 5967 5968 5984 5992 6015 6050 6086 6112 6130 6143 6176 6224 6293 6349 6391 6396 6383 6354 6326 6307 6293 6282 6276 6254 6232 6214 6205 6194 6179 6171 6168 6158 6150 6144 6137 6132 6124 6113 6107 6095 6080 6067 6055 6037 6027 6018 6007 5993 5980 5968 5957 5948 5935 5922 5913 5901 5890 5873 5862 5845 5830 5812 5795 5773 5749 5729 5697 5674 5663 5654 5643 5633 5620 5607 5594 5578 5566 5558 5547 5539 5535 5531 5527 5518 5510 5509 5505 5493 5489 5486 5496 5488 5474 5448 5433 5415 5405 5376 5373 5353 5342 5329 5312 5294 5286 5277 5259 5233 5214 5203 5195 5184 5174 5166 5155 5147 5139 5133 5128 5120 5110 5102 5091 5084 5081 5075 5069 5059 5054 5047 5041 5036 5029 5022 5018 5012 5007 5003 4997 4993 4991 4986 4985 4977 4972 4969 4964 4959 4955 4949 4944 4941 4937 4932 4926 4925 4927 4927 4928 4924 4921 4919 4913 4913 4913 4908 4903 4901 4896 4892 4889 4889 4886 4883 4880 4878 4867 4858 4850 4838 4832 4829 4823 4819 4816 4812 4811 4807 4804 4806 4801 4799 4796 4795 4794 4789 4785 4784 4781 4778 4780 4776 4775 4772 4771 4771 4771 4771 4770 4768 4768 4768 4767 4768 4763 4763 4763 4759 4756 4755 4755 4756 4752 4749 4748 4746 4745 4744 4741 4743 4740 4740 4739 4737 4736 4738 4737 4737 4738 4743 4743 4745 4749 4751 4754 4756 4757 4762 4762 4763 4768 4769 4772 4776 4778 4781 4786 4785 4790 4795 4793 4793 4796 4801 4803 4807 4809 4814 4822 4826 4832 4841 4849 4855 4852 4851 4854 4852 4853 4853 4860 4864 4870 4878 4882 4885 4892 4896 4900 4911 4931 4953 4983 5007 5011 5002 4993 4994 5006 5019 5024 5030 5039 5045 5042 5035 5026 5026 5030
4787 4776 4768 4759 4752 4752 4749 4745 4745 4747 4748 4749 4758 4767 4767 4766 4764 4762 4758 4764 4774 4781 4787 4796 4808 4800 4785 4772 4763 4762 4762 4760 4758 4758 4760 4762 4758 4760 4764 4766 4764 4765 4764 4768 4771 4774 4775 4776 4775 4774 4778 4779 4781 4781 4784 4785 4785 4786 4784 4786 4786 4785 4785 4787 4789 4790 4795 4796 4800 4802 4804 4807 4811 4813 4817 4821 4827 4830 4833 4836 4841 4846 4850 4854 4860 4863 4866 4869 4874 4878 4888 4893 4898 4904 4911 4916 4927 4936 4945 4954 4963 4974 4984 4992 5000 5007 5017 5024 5032 5041 5050 5060 5067 5076 5086 5097 5111 5125 5136 5148 5159 5170 5185 5199 5211 5220 5232 5242 5250 5260 5271 5278 5282 5293 5299 5309 5323 5331 5335 5343 5348 5359 5366 5376 5387 5400 5414 5424 5434 5443 5453 5466 5468 5476 5486 5500 5525 5556 5591 5625 5648 5663 5686 5720 5757 5775 5777 5781 5789 5798 5795 5775 5762 5746 5739 5737 5737 5759 5791 5794 5779 5773 5758 5742 5740 5746 5769 5793 5805 5804 5798 5800 5806 5802 5790 5787 5783 5779 5789 5789 5767 5749 5746 5750 5765 5788 5826 5856 5864 5865 5860 5866 5886 5914 5932 5950 5967 5985 5994 5998 6015 6027 6035 6039 6051 6061 6070 6079 6104 6118 6091 6053 6012 5985 5975 5973 5986 6015 6071 6128 6172 6148 6112 6083 6055 6030 6009 5987 5953 5917 5882 5845 5808 5785 5770 5759 5749 5734 5719 5705 5699 5708 5721 5729 5739 5754 5769 5784 5810 5837 5869 5903 5933 5966 6001 6034 6031 6013 5997 5976 5954 5928 5917 5928 5941 5946 5948 5944 5943 5953 5973 6008 6051 6079 6105 6134 6162 6190 6231 6270 6313 6363 6386 6389 6383 6368 6335 6309 6293 6289 6276 6255 6235 6226 6217 6209 6199 6184 6176 6167 6159 6148 6144 6135 6128 6122 6118 6108 6092 6077 6062 6041 6028 6021 6009 5997 5981 5972 5956 5944 5937 5922 5913 5901 5890 5873 5857 5842 5822 5809 5787 5764 5744 5724 5702 5681 5668 5656 5641 5631 5618 5606 5600 5588 5579 5566 5553 5534 5523 5506 5498 5487 5478 5470 5458 5450 5442 5441 5435 5426 5420 5396 5378 5365 5353 5333 5321 5306 5297 5291 5274 5262 5253 5244 5234 5218 5208 5200 5190 5181 5175 5168 5159 5148 5141 5136 5127 5119 5111 5102 5092 5084 5080 5075 5068 5062 5055 5048 5042 5035 5028 5025 5019 5013 5009 5004 5002 4998 4994 4990 4984 4976 4970 4968 4964 4962 4955 4949 4944 4941 4935 4933 4927 4921 4922 4924 4924 4922 4920 4917 4911 4910 4909 4905 4904 4900 4893 4892 4891 4888 4884 4883 4879 4876 4862 4854 4846 4836 4829 4826 4823 4819 4813 4812 4809 4806 4807 4806 4801 4798 4795 4794 4793 4788 4788 4784 4781 4779 4781 4779 4779 4774 4773 4773 4774 4772 4770 4770 4769 4767 4766 4766 4763 4763 4763 4760 4758 4757 4755 4755 4753 4751 4749 4748 4747 4745 4743 4744 4743 4743 4740 4737 4736 4735 4735 4736 4734 4741 4745 4747 4748 4749 4754 4755 4757 4759 4763 4766 4767 4771 4774 4776 4777 4780 4783 4784 4788 4790 4789 4795 4798 4800 4802 4807 4808 4813 4820 4823 4827 4831 4833 4836 4839 4837 4843 4845 4847 4853 4859 4867 4874 4886 4894 4893 4893 4898 4909 4921 4937 4961 4992 5015 5024 5022 5013 5008 5021 5033 5039 5043 5048 5057 5057 5055 5046 5038 5042
4781 4771 4759 4751 4747 4743 4740 4742 4741 4739 4736 4739 4750 4762 4770 4771 4769 4763 4768 4779 4781 4787 4791 4799 4810 4813 4804 4795 4779 4767 4757 4760 4758 4758 4761 4761 4759 4756 4764 4766 4764 4767 4767 4766 4769 4771 4773 4776 4773 4773 4777 4777 4779 4779 4781 4783 4782 4784 4784 4784 4783 4782 4785 4788 4792 4794 4793 4797 4799 4800 4801 4806 4808 4811 4814 4819 4824 4828 4830 4834 4839 4843 4847 4852 4856 4857 4860 4864 4871 4875 4882 4887 4891 4897 4905 4910 4920 4928 4935 4944 4953 4959 4969 4981 4987 4996 5005 5013 5018 5029 5038 5048 5056 5065 5077 5088 5099 5111 5121 5135 5145 5158 5171 5185 5200 5210 5221 5231 5240 5253 5264 5272 5280 5291 5302 5310 5322 5332 5342 5352 5360 5371 5377 5391 5407 5424 5438 5452 5463 5468 5478 5488 5491 5500 5515 5533 5560 5595 5634 5668 5697 5718 5737 5755 5800 5832 5848 5851 5861 5837 5796 5772 5760 5752 5751 5756 5775 5806 5830 5821 5803 5789 5767 5749 5756 5779 5820 5857 5877 5871 5865 5865 5872 5858 5852 5852 5848 5835 5828 5814 5793 5769 5757 5763 5777 5793 5819 5853 5879 5884 5887 5886 5888 5906 5927 5948 5964 5975 5986 5997 6009 6026 6026 6027 6034 6037 6041 6039 6048 6072 6079 6062 6021 5991 5976 5966 5976 5985 6030 6084 6140 6132 6094 6058 6029 6011 5996 5981 5964 5935 5900 5873 5843 5815 5798 5779 5761 5747 5732 5714 5699 5694 5697 5707 5718 5732 5751 5771 5796 5807 5838 5871 5908 5930 5970 5987 5971 5952 5933 5921 5902 5890 5895 5910 5920 5922 5925 5918 5927 5950 5995 6039 6086 6117 6150 6190 6223 6257 6286 6311 6357 6391 6410 6415 6409 6382 6344 6317 6301 6297 6290 6278 6265 6253 6251 6244 6235 6221 6209 6199 6190 6178 6169 6160 6148 6139 6137 6137 6125 6108 6085 6064 6041 6016 6003 5989 5977 5968 5959 5944 5934 5919 5904 5895 5879 5861 5844 5835 5820 5811 5798 5789 5781 5755 5736 5716 5701 5688 5677 5670 5657 5647 5646 5638 5630 5616 5599 5576 5555 5536 5522 5505 5485 5471 5455 5441 5433 5425 5403 5390 5380 5372 5356 5342 5335 5327 5320 5311 5304 5292 5276 5262 5250 5238 5224 5215 5207 5198 5187 5179 5169 5163 5156 5149 5141 5133 5127 5116 5111 5103 5094 5084 5080 5076 5074 5066 5054 5047 5039 5034 5028 5023 5018 5012 5013 5011 5005 4997 4994 4990 4983 4976 4969 4966 4963 4959 4954 4948 4944 4939 4937 4933 4926 4920 4916 4917 4922 4921 4918 4915 4911 4910 4906 4902 4901 4897 4893 4893 4890 4887 4884 4882 4875 4870 4859 4848 4840 4836 4829 4823 4821 4818 4813 4813 4808 4805 4804 4803 4802 4798 4795 4792 4789 4789 4786 4783 4782 4780 4780 4780 4779 4774 4773 4773 4772 4771 4771 4771 4771 4768 4765 4767 4762 4761 4762 4759 4756 4755 4756 4753 4751 4750 4749 4747 4745 4744 4743 4741 4742 4739 4739 4737 4740 4737 4735 4736 4737 4740 4742 4745 4748 4749 4751 4753 4755 4757 4762 4765 4768 4770 4770 4773 4776 4779 4781 4784 4788 4791 4795 4797 4800 4802 4803 4808 4810 4814 4817 4822 4823 4826 4830 4832 4835 4835 4841 4845 4848 4857 4864 4874 4887 4898 4904 4905 4900 4903 4909 4922 4936 4962 4988 5014 5032 5038 5028 5025 5032 5043 5051 5053 5060 5067 5071 5067 5062 5054 5057
4774 4764 4753 4747 4740 4736 4734 4736 4734 4734 4736 4736 4736 4749 4757 4761 4767 4771 4776 4780 4781 4791 4792 4800 4811 4819 4819 4809 4799 4785 4771 4765 4758 4758 4761 4760 4756 4754 4764 4763 4761 4764 4766 4767 4769 4773 4773 4772 4770 4772 4775 4776 4778 4779 4782 4783 4784 4782 4783 4780 4781 4782 4785 4789 4789 4792 4793 4794 4795 4798 4801 4806 4807 4810 4814 4816 4820 4825 4827 4831 4836 4840 4845 4849 4852 4852 4859 4863 4869 4874 4880 4884 4889 4893 4901 4908 4913 4922 4930 4937 4942 4950 4961 4968 4974 4981 4990 5000 5007 5015 5025 5034 5043 5053 5064 5077 5088 5098 5107 5120 5132 5143 5160 5173 5186 5194 5203 5211 5224 5236 5248 5263 5272 5280 5293 5303 5316 5332 5343 5353 5364 5375 5387 5406 5426 5446 5460 5474 5482 5487 5496 5511 5519 5530 5541 5562 5590 5626 5667 5702 5734 5767 5790 5811 5841 5881 5909 5917 5906 5860 5803 5779 5764 5765 5772 5790 5811 5837 5838 5828 5809 5788 5770 5765 5789 5817 5874 5914 5938 5940 5938 5935 5931 5923 5915 5900 5883 5857 5844 5826 5800 5777 5774 5782 5793 5797 5815 5839 5876 5899 5910 5913 5910 5914 5930 5951 5968 5975 5990 6004 6016 6020 6017 6011 6008 6006 6002 5989 5987 6008 6034 6048 6025 5995 5976 5965 5964 5965 5997 6056 6117 6137 6101 6075 6046 6016 5994 5977 5952 5933 5910 5895 5880 5857 5835 5810 5789 5767 5746 5724 5705 5693 5687 5688 5694 5705 5718 5739 5773 5792 5805 5829 5856 5897 5923 5925 5913 5898 5883 5876 5878 5874 5875 5890 5891 5902 5898 5898 5929 5973 6023 6064 6105 6150 6200 6248 6286 6316 6341 6366 6396 6438 6458 6459 6433 6398 6371 6354 6340 6332 6329 6322 6314 6307 6309 6303 6293 6283 6263 6250 6239 6222 6209 6198 6189 6183 6179 6179 6175 6156 6135 6100 6068 6030 6007 5999 5989 5977 5964 5945 5938 5930 5920 5908 5904 5891 5884 5873 5867 5854 5839 5823 5819 5796 5779 5761 5746 5738 5736 5726 5711 5707 5707 5697 5691 5679 5661 5635 5608 5586 5566 5545 5527 5513 5498 5485 5469 5446 5431 5413 5406 5402 5399 5399 5391 5386 5378 5367 5360 5345 5323 5298 5282 5270 5259 5242 5223 5205 5187 5175 5166 5159 5149 5141 5134 5127 5123 5116 5109 5099 5089 5083 5084 5084 5079 5071 5057 5043 5035 5030 5024 5019 5016 5011 5012 5008 5002 4994 4990 4985 4981 4976 4970 4964 4960 4957 4955 4947 4944 4938 4933 4929 4927 4925 4915 4912 4912 4911 4911 4912 4910 4909 4905 4902 4899 4895 4890 4887 4885 4883 4881 4878 4873 4865 4855 4842 4835 4831 4826 4821 4820 4818 4813 4809 4807 4805 4804 4800 4799 4799 4796 4792 4791 4791 4786 4783 4784 4783 4779 4778 4776 4775 4776 4774 4771 4772 4773 4772 4769 4767 4766 4768 4766 4762 4760 4757 4756 4755 4755 4754 4750 4748 4748 4747 4743 4742 4741 4741 4740 4738 4737 4738 4740 4735 4735 4735 4738 4742 4745 4747 4745 4747 4752 4755 4754 4758 4761 4764 4767 4768 4769 4773 4779 4783 4782 4785 4791 4792 4794 4797 4801 4803 4807 4811 4812 4816 4818 4818 4820 4823 4826 4829 4832 4837 4841 4847 4853 4862 4868 4882 4895 4908 4915 4921 4923 4918 4916 4918 4932 4958 4986 5019 5039 5047 5045 5044 5046 5052 5062 5067 5073 5079 5085 5080 5074 5067 5067
4765 4757 4747 4743 4739 4731 4728 4732 4734 4731 4732 4733 4731 4734 4738 4746 4752 4761 4771 4772 4777 4787 4794 4804 4809 4814 4818 4819 4816 4810 4796 4775 4757 4758 4761 4760 4760 4755 4758 4762 4763 4761 4764 4766 4768 4769 4768 4769 4772 4774 4776 4775 4777 4777 4778 4779 4782 4782 4780 4778 4779 4780 4784 4789 4788 4788 4788 4791 4794 4796 4800 4804 4805 4810 4813 4815 4819 4821 4824 4830 4833 4837 4843 4846 4850 4852 4858 4863 4869 4873 4878 4883 4889 4894 4901 4905 4912 4919 4925 4932 4938 4944 4955 4960 4968 4974 4980 4989 4999 5006 5014 5023 5032 5043 5049 5062 5074 5086 5098 5107 5117 5129 5140 5156 5169 5179 5187 5198 5209 5218 5228 5242 5252 5266 5282 5298 5315 5331 5345 5355 5369 5386 5403 5422 5443 5459 5473 5486 5492 5498 5516 5533 5543 5552 5560 5586 5620 5654 5695 5737 5773 5807 5841 5869 5892 5927 5964 5975 5934 5875 5818 5776 5769 5782 5801 5817 5830 5834 5842 5838 5817 5784 5774 5787 5820 5865 5915 5968 6002 6017 6006 5986 5963 5946 5929 5915 5890 5865 5843 5832 5804 5781 5776 5789 5800 5813 5819 5836 5871 5903 5920 5927 5925 5926 5936 5954 5970 5986 6001 6022 6007 5996 6000 5995 5984 5976 5970 5955 5944 5959 5985 6014 6022 6000 5977 5963 5954 5957 5975 6023 6084 6119 6128 6111 6079 6043 5999 5971 5946 5931 5917 5918 5919 5901 5872 5846 5825 5801 5775 5745 5717 5699 5686 5678 5675 5679 5697 5715 5737 5765 5779 5797 5825 5848 5869 5874 5866 5859 5853 5853 5856 5854 5862 5869 5865 5874 5885 5910 5955 5999 6047 6094 6138 6185 6239 6288 6329 6368 6394 6418 6448 6478 6487 6466 6449 6437 6424 6407 6403 6395 6388 6389 6385 6381 6380 6367 6361 6349 6326 6312 6294 6280 6266 6259 6255 6247 6244 6244 6232 6204 6171 6131 6092 6063 6046 6052 6052 6042 6031 6005 5986 5977 5973 5973 5968 5960 5948 5941 5928 5918 5914 5906 5897 5877 5845 5815 5812 5803 5794 5786 5774 5772 5772 5770 5769 5756 5736 5708 5681 5647 5628 5605 5589 5572 5554 5540 5522 5501 5484 5474 5467 5464 5461 5461 5460 5458 5448 5441 5427 5408 5378 5356 5346 5323 5294 5261 5232 5210 5197 5183 5175 5167 5157 5148 5137 5130 5120 5109 5104 5097 5089 5082 5077 5071 5067 5062 5051 5039 5031 5026 5020 5016 5011 5008 5007 5009 5001 4996 4988 4980 4977 4972 4968 4963 4957 4952 4948 4949 4943 4939 4937 4930 4926 4924 4920 4912 4907 4905 4904 4905 4908 4905 4902 4902 4896 4894 4891 4887 4885 4880 4876 4873 4872 4860 4848 4840 4834 4828 4826 4822 4820 4818 4814 4812 4809 4806 4803 4801 4799 4798 4793 4792 4791 4788 4785 4785 4783 4779 4778 4780 4779 4776 4778 4776 4772 4772 4770 4769 4769 4769 4765 4765 4765 4763 4763 4759 4756 4755 4753 4751 4753 4748 4748 4747 4747 4745 4741 4740 4738 4738 4736 4735 4736 4736 4737 4737 4739 4739 4745 4747 4748 4749 4752 4756 4757 4758 4761 4763 4764 4767 4774 4775 4777 4783 4786 4786 4790 4790 4792 4797 4800 4801 4805 4807 4808 4812 4818 4818 4822 4823 4826 4831 4834 4838 4841 4849 4861 4869 4876 4889 4901 4912 4924 4933 4942 4944 4937 4931 4935 4954 4983 5018 5040 5053 5055 5058 5061 5067 5077 5083 5090 5094 5098 5097 5091 5084 5086
4756 4748 4743 4735 4729 4728 4728 4726 4726 4726 4725 4728 4727 4730 4730 4732 4742 4750 4762 4769 4774 4782 4789 4797 4803 4809 4812 4816 4819 4817 4804 4779 4760 4758 4759 4755 4756 4758 4757 4760 4761 4764 4763 4760 4764 4765 4768 4770 4772 4772 4775 4773 4775 4776 4776 4779 4781 4779 4777 4777 4779 4779 4782 4786 4786 4784 4787 4790 4792 4796 4799 4802 4805 4811 4811 4814 4816 4819 4823 4829 4832 4835 4840 4846 4849 4853 4857 4861 4868 4872 4876 4882 4890 4895 4901 4906 4913 4920 4926 4933 4940 4946 4954 4959 4965 4975 4981 4987 4995 5002 5009 5017 5025 5036 5044 5052 5065 5079 5085 5096 5109 5116 5127 5140 5151 5163 5174 5182 5193 5205 5217 5227 5237 5252 5270 5290 5309 5329 5346 5362 5377 5396 5410 5433 5457 5472 5484 5494 5501 5517 5535 5554 5565 5567 5577 5610 5643 5676 5728 5768 5810 5845 5889 5925 5950 5973 6010 5999 5948 5894 5841 5798 5787 5811 5831 5829 5827 5830 5840 5843 5825 5789 5793 5815 5846 5899 5956 6006 6070 6085 6060 6019 5993 5974 5957 5935 5902 5874 5852 5836 5813 5789 5785 5800 5829 5842 5842 5842 5869 5897 5912 5923 5930 5933 5940 5958 5976 6005 6036 6032 5991 5970 5967 5964 5955 5945 5933 5915 5915 5925 5941 5975 5993 5994 5975 5958 5941 5939 5958 6004 6050 6103 6150 6157 6126 6082 6039 6005 5966 5940 5947 5954 5964 5953 5916 5880 5856 5837 5811 5781 5742 5717 5698 5679 5668 5667 5675 5696 5712 5743 5764 5780 5799 5817 5825 5837 5833 5824 5829 5835 5834 5835 5834 5833 5853 5875 5908 5943 5981 6022 6060 6121 6166 6216 6265 6307 6354 6430 6464 6481 6484 6482 6456 6431 6415 6408 6406 6421 6442 6461 6460 6453 6432 6421 6415 6407 6403 6389 6370 6352 6334 6315 6295 6284 6279 6275 6277 6287 6264 6227 6184 6157 6140 6121 6112 6119 6122 6110 6095 6072 6058 6046 6034 6042 6044 6036 6024 6014 6004 5989 5979 5987 5973 5952 5935 5916 5924 5892 5871 5860 5851 5843 5836 5834 5830 5826 5805 5779 5750 5719 5693 5676 5657 5641 5623 5605 5592 5575 5553 5538 5536 5539 5537 5536 5536 5532 5526 5514 5495 5464 5433 5408 5382 5349 5321 5295 5266 5247 5220 5197 5186 5172 5159 5151 5143 5137 5128 5114 5102 5094 5088 5084 5080 5071 5063 5054 5046 5038 5031 5024 5018 5013 5009 5004 5002 5003 5000 4992 4986 4978 4970 4966 4964 4959 4954 4954 4948 4946 4940 4936 4936 4931 4924 4919 4918 4917 4911 4907 4901 4897 4898 4897 4898 4897 4893 4892 4890 4887 4883 4880 4875 4873 4867 4856 4844 4834 4830 4827 4824 4821 4819 4816 4813 4811 4810 4807 4805 4803 4799 4796 4793 4792 4790 4789 4786 4784 4783 4782 4779 4780 4776 4778 4776 4776 4773 4770 4769 4768 4768 4765 4765 4765 4764 4762 4760 4759 4756 4754 4753 4752 4751 4748 4746 4747 4746 4744 4740 4740 4741 4738 4738 4738 4736 4734 4735 4736 4737 4739 4743 4745 4746 4748 4752 4755 4756 4758 4761 4762 4767 4774 4780 4778 4778 4777 4782 4786 4788 4789 4791 4797 4797 4799 4802 4808 4809 4813 4816 4821 4825 4825 4828 4830 4839 4847 4851 4860 4866 4873 4889 4901 4909 4921 4941 4949 4954 4961 4959 4952 4939 4950 4984 5011 5035 5049 5059 5064 5070 5081 5090 5100 5105 5113 5118 5120 5116 5105 5099
4749 4740 4734 4728 4721 4722 4728 4725 4725 4725 4722 4726 4729 4727 4727 4732 4740 4745 4750 4760 4768 4773 4780 4788 4795 4803 4811 4812 4813 4811 4802 4782 4765 4759 4752 4751 4754 4757 4760 4758 4758 4762 4762 4764 4764 4767 4768 4770 4771 4771 4770 4774 4777 4777 4775 4776 4775 4776 4777 4776 4779 4780 4780 4782 4784 4783 4786 4791 4792 4795 4799 4801 4803 4805 4810 4812 4815 4818 4822 4826 4831 4835 4839 4844 4848 4850 4854 4858 4866 4870 4876 4882 4887 4892 4899 4906 4912 4919 4925 4931 4937 4946 4953 4959 4966 4974 4981 4986 4997 5005 5012 5018 5028 5035 5043 5051 5061 5070 5077 5089 5098 5109 5119 5127 5139 5151 5161 5173 5183 5195 5206 5217 5231 5246 5263 5281 5301 5322 5340 5363 5381 5398 5417 5440 5464 5482 5493 5503 5517 5532 5550 5573 5585 5590 5596 5629 5666 5705 5757 5793 5830 5873 5924 5969 6004 6031 6048 6033 5983 5938 5898 5890 5878 5858 5836 5828 5830 5836 5844 5844 5830 5812 5821 5843 5883 5933 5982 6042 6095 6115 6085 6045 6026 6008 5995 5983 5960 5937 5889 5868 5857 5835 5822 5833 5850 5865 5860 5854 5866 5889 5907 5916 5927 5935 5949 5974 6006 6035 6035 6007 5969 5947 5933 5926 5923 5913 5900 5889 5888 5890 5903 5929 5951 5966 5959 5944 5928 5929 5953 5989 6051 6087 6163 6199 6177 6128 6094 6065 6049 6017 6012 6012 6015 5997 5969 5924 5894 5864 5839 5811 5780 5740 5716 5690 5674 5664 5663 5673 5692 5718 5743 5764 5782 5789 5792 5798 5801 5805 5815 5820 5815 5813 5812 5835 5876 5911 5944 5969 6003 6037 6079 6137 6187 6228 6246 6283 6352 6437 6480 6493 6472 6434 6410 6390 6368 6348 6341 6363 6403 6441 6460 6438 6414 6398 6385 6376 6367 6358 6343 6330 6313 6294 6282 6272 6264 6257 6254 6256 6254 6249 6226 6217 6190 6178 6177 6179 6177 6171 6150 6134 6120 6117 6117 6116 6117 6110 6094 6085 6072 6063 6061 6046 6039 6021 6012 5997 5982 5968 5939 5919 5913 5908 5907 5910 5906 5900 5881 5861 5823 5778 5759 5742 5728 5708 5691 5676 5661 5643 5625 5618 5608 5609 5611 5609 5612 5604 5601 5579 5548 5515 5482 5442 5414 5379 5348 5319 5291 5266 5236 5211 5191 5181 5164 5153 5145 5137 5128 5120 5106 5096 5093 5095 5091 5084 5075 5061 5041 5036 5030 5023 5018 5012 5006 5003 4998 4994 4990 4986 4979 4973 4968 4963 4959 4957 4951 4950 4947 4942 4938 4936 4933 4933 4924 4915 4914 4914 4910 4909 4903 4897 4891 4889 4891 4891 4890 4888 4887 4883 4881 4877 4874 4871 4866 4853 4843 4835 4834 4830 4826 4824 4820 4817 4815 4812 4808 4806 4805 4802 4800 4797 4794 4791 4789 4788 4787 4785 4782 4782 4780 4780 4779 4777 4774 4773 4773 4773 4771 4769 4768 4766 4764 4763 4762 4761 4760 4757 4754 4755 4754 4750 4747 4749 4749 4749 4744 4742 4742 4741 4741 4739 4736 4735 4735 4738 4737 4736 4736 4740 4743 4745 4743 4747 4750 4753 4754 4756 4758 4760 4765 4776 4784 4778 4775 4774 4779 4783 4785 4787 4788 4794 4798 4800 4800 4804 4808 4813 4818 4821 4820 4825 4825 4833 4839 4847 4853 4865 4872 4883 4894 4909 4922 4936 4953 4967 4979 4986 4986 4975 4953 4950 4973 5003 5025 5035 5042 5050 5073 5092 5107 5113 5121 5129 5135 5144 5137 5121 5122
4742 4735 4730 4725 4722 4723 4728 4726 4725 4724 4722 4725 4726 4726 4728 4734 4737 4740 4742 4752 4759 4765 4772 4778 4783 4793 4801 4807 4807 4804 4794 4780 4767 4760 4759 4754 4754 4756 4760 4760 4760 4760 4762 4766 4764 4768 4765 4767 4769 4767 4768 4772 4772 4774 4776 4775 4774 4773 4775 4777 4780 4779 4778 4780 4783 4785 4787 4787 4790 4792 4796 4797 4800 4804 4808 4811 4815 4818 4821 4824 4830 4835 4838 4841 4844 4847 4852 4858 4863 4870 4875 4882 4886 4892 4899 4904 4910 4918 4924 4930 4937 4943 4952 4960 4966 4973 4980 4987 4994 5005 5012 5021 5030 5036 5043 5049 5061 5069 5079 5090 5098 5105 5116 5125 5136 5145 5157 5169 5181 5193 5204 5212 5226 5240 5256 5274 5294 5314 5332 5356 5379 5402 5423 5445 5472 5488 5505 5515 5530 5544 5560 5578 5596 5609 5621 5651 5692 5720 5752 5784 5826 5884 5933 5993 6046 6091 6100 6089 6063 6031 5997 5961 5917 5873 5844 5832 5837 5850 5860 5863 5850 5847 5851 5872 5914 5961 6026 6077 6133 6153 6138 6106 6084 6068 6058 6052 6046 6036 6022 5982 5956 5913 5899 5892 5889 5884 5877 5876 5875 5891 5902 5914 5930 5945 5984 6008 6026 6023 6011 5994 5972 5959 5943 5922 5912 5902 5895 5883 5870 5866 5870 5876 5897 5928 5935 5930 5925 5932 5954 5986 6059 6108 6174 6218 6197 6153 6111 6066 6042 6022 6007 5997 5989 5982 5976 5961 5931 5892 5853 5832 5806 5772 5736 5704 5679 5666 5658 5661 5670 5693 5726 5746 5761 5764 5767 5778 5790 5799 5803 5811 5809 5812 5836 5868 5900 5934 5958 5989 6022 6059 6112 6163 6204 6225 6243 6271 6346 6426 6462 6456 6416 6388 6361 6338 6316 6306 6310 6323 6346 6391 6415 6404 6388 6375 6365 6358 6343 6333 6321 6311 6298 6287 6277 6267 6261 6249 6243 6236 6231 6238 6248 6268 6260 6237 6231 6243 6240 6227 6207 6198 6188 6191 6184 6180 6181 6177 6167 6147 6141 6136 6119 6104 6099 6087 6067 6054 6049 6032 6018 5993 5982 5983 5983 5984 5984 5970 5952 5914 5875 5836 5825 5811 5795 5778 5761 5742 5724 5709 5691 5682 5676 5673 5679 5674 5670 5655 5627 5595 5564 5534 5503 5464 5430 5394 5357 5323 5292 5270 5242 5219 5203 5190 5173 5160 5149 5137 5125 5116 5105 5094 5089 5089 5088 5081 5071 5062 5045 5033 5026 5021 5014 5011 5004 5002 5001 4995 4988 4981 4978 4972 4966 4963 4959 4953 4949 4947 4943 4937 4935 4933 4930 4927 4924 4918 4913 4908 4907 4908 4903 4900 4897 4890 4886 4882 4882 4881 4881 4880 4879 4876 4870 4870 4864 4848 4841 4837 4833 4831 4829 4825 4822 4818 4816 4813 4809 4807 4804 4802 4799 4796 4794 4791 4790 4790 4788 4786 4784 4782 4780 4778 4779 4778 4776 4775 4771 4773 4773 4771 4771 4767 4765 4764 4763 4763 4758 4756 4756 4756 4751 4751 4750 4749 4748 4746 4744 4743 4742 4739 4737 4738 4737 4734 4733 4735 4735 4735 4734 4738 4738 4739 4742 4747 4750 4753 4754 4758 4759 4761 4763 4768 4775 4774 4775 4777 4780 4784 4788 4788 4793 4799 4798 4800 4798 4804 4809 4812 4815 4817 4817 4823 4823 4827 4836 4847 4856 4870 4877 4887 4902 4916 4933 4946 4962 4978 4992 4999 5007 4998 4974 4957 4966 4990 5005 5018 5037 5060 5080 5100 5116 5125 5136 5145 5155 5164 5157 5142 5141
4733 4728 4728 4723 4723 4724 4726 4726 4726 4726 4725 4727 4728 4726 4728 4732 4738 4742 4746 4753 4757 4761 4764 4769 4775 4780 4790 4794 4797 4795 4794 4788 4783 4778 4764 4756 4751 4750 4755 4759 4761 4761 4761 4762 4764 4767 4765 4765 4764 4767 4770 4770 4771 4774 4774 4772 4771 4774 4775 4775 4776 4777 4776 4779 4781 4783 4783 4785 4788 4793 4794 4796 4799 4803 4806 4807 4812 4818 4820 4822 4826 4832 4835 4839 4842 4847 4851 4856 4862 4868 4874 4880 4885 4892 4897 4902 4908 4915 4921 4929 4936 4942 4950 4955 4962 4970 4978 4986 4996 5003 5013 5024 5031 5042 5047 5052 5063 5073 5082 5095 5104 5114 5126 5135 5146 5156 5166 5179 5194 5202 5208 5219 5232 5239 5255 5269 5288 5304 5319 5342 5371 5399 5426 5449 5476 5495 5513 5528 5542 5556 5565 5577 5594 5612 5631 5662 5699 5730 5752 5782 5819 5871 5926 5982 6038 6086 6130 6151 6114 6060 6007 5952 5912 5881 5870 5867 5876 5896 5923 5933 5892 5870 5879 5900 5936 6006 6064 6107 6111 6122 6150 6168 6147 6124 6100 6083 6067 6046 6026 6006 5985 5962 5933 5920 5911 5903 5890 5895 5899 5903 5917 5938 5962 5991 6026 6037 6033 6026 6017 6000 5983 5970 5954 5932 5908 5893 5885 5870 5852 5846 5847 5853 5874 5895 5907 5914 5918 5937 5963 5992 6068 6132 6176 6216 6176 6129 6078 6032 6012 5998 5987 5978 5961 5952 5949 5948 5933 5903 5869 5843 5827 5794 5758 5717 5687 5665 5649 5651 5654 5672 5697 5722 5732 5743 5752 5767 5777 5781 5788 5796 5806 5833 5871 5896 5920 5952 5977 6010 6044 6082 6131 6171 6195 6213 6230 6282 6355 6420 6438 6409 6372 6341 6313 6294 6286 6282 6290 6307 6334 6370 6403 6389 6386 6372 6360 6351 6334 6324 6316 6307 6296 6287 6275 6265 6254 6246 6236 6225 6214 6216 6223 6255 6294 6315 6304 6313 6298 6288 6280 6268 6251 6254 6248 6245 6249 6242 6236 6222 6229 6212 6195 6181 6170 6163 6161 6163 6148 6122 6097 6075 6056 6058 6052 6045 6030 6012 5998 5973 5933 5900 5885 5863 5841 5825 5802 5786 5770 5753 5737 5726 5713 5702 5697 5683 5673 5650 5624 5588 5559 5525 5493 5459 5423 5384 5345 5309 5285 5265 5241 5227 5207 5191 5174 5161 5151 5143 5128 5115 5103 5098 5091 5077 5075 5075 5071 5061 5045 5025 5019 5015 5010 5004 5000 5000 5003 4998 4991 4981 4974 4970 4967 4962 4957 4953 4948 4944 4940 4936 4933 4929 4927 4924 4922 4919 4913 4908 4907 4904 4901 4897 4897 4897 4890 4883 4879 4876 4873 4872 4871 4869 4866 4862 4858 4847 4843 4838 4836 4831 4829 4825 4822 4819 4816 4812 4810 4806 4805 4801 4799 4795 4794 4793 4791 4789 4788 4786 4783 4782 4782 4779 4779 4774 4776 4773 4771 4769 4771 4771 4769 4766 4765 4763 4762 4762 4760 4759 4757 4755 4752 4751 4749 4749 4748 4743 4744 4742 4740 4738 4737 4736 4735 4732 4732 4733 4735 4735 4736 4737 4739 4743 4744 4746 4747 4751 4755 4757 4758 4760 4765 4765 4768 4772 4777 4783 4790 4795 4799 4800 4805 4805 4802 4799 4800 4808 4809 4809 4811 4812 4816 4822 4824 4826 4836 4847 4859 4871 4886 4898 4908 4920 4932 4949 4961 4976 4994 5011 5026 5017 4993 4970 4968 4978 5001 5021 5042 5065 5084 5106 5122 5133 5145 5155 5167 5173 5171 5163 5160
4734 4729 4725 4724 4725 4726 4725 4724 4725 4725 4725 4728 4729 4727 4733 4736 4741 4743 4748 4752 4751 4753 4758 4761 4765 4766 4769 4774 4779 4782 4780 4781 4782 4785 4778 4761 4752 4751 4754 4757 4759 4760 4761 4762 4765 4765 4769 4767 4767 4770 4768 4767 4770 4773 4770 4769 4769 4772 4773 4775 4775 4775 4778 4779 4781 4781 4783 4784 4789 4792 4793 4797 4800 4803 4808 4810 4813 4817 4818 4822 4823 4828 4833 4836 4840 4845 4849 4855 4860 4865 4872 4877 4883 4889 4895 4900 4905 4912 4918 4927 4933 4940 4947 4955 4962 4968 4977 4985 4995 5004 5015 5023 5035 5045 5054 5060 5071 5076 5086 5096 5109 5125 5134 5143 5155 5168 5185 5201 5215 5221 5232 5243 5251 5257 5266 5272 5282 5298 5315 5334 5360 5395 5422 5451 5476 5498 5519 5536 5549 5564 5575 5580 5592 5616 5639 5665 5703 5743 5768 5788 5816 5860 5908 5957 6005 6059 6110 6147 6111 6053 6000 5951 5908 5878 5880 5890 5912 5936 5979 6009 5997 5943 5910 5959 6015 6069 6095 6087 6070 6072 6106 6145 6147 6118 6094 6067 6046 6033 6023 6015 6000 5976 5953 5935 5930 5919 5915 5918 5925 5934 5953 5990 6020 6048 6058 6053 6040 6028 6021 6008 5993 5975 5962 5939 5905 5884 5871 5855 5839 5830 5830 5842 5857 5872 5896 5910 5924 5940 5973 6005 6081 6155 6188 6202 6167 6117 6061 6030 6023 6007 5983 5963 5943 5928 5924 5916 5904 5886 5864 5844 5821 5790 5761 5739 5695 5657 5642 5640 5642 5657 5681 5708 5716 5728 5743 5762 5759 5769 5782 5807 5833 5863 5890 5916 5948 5980 6009 6032 6057 6088 6126 6160 6181 6197 6231 6294 6351 6394 6407 6370 6323 6284 6265 6258 6258 6262 6272 6298 6326 6351 6387 6387 6389 6378 6364 6348 6329 6318 6312 6303 6296 6289 6278 6266 6250 6237 6229 6215 6204 6201 6198 6220 6274 6335 6368 6374 6362 6349 6344 6336 6328 6319 6309 6310 6319 6311 6299 6287 6277 6261 6243 6230 6222 6209 6202 6186 6177 6155 6138 6115 6088 6073 6058 6032 6010 5988 5963 5942 5918 5891 5866 5842 5816 5789 5768 5748 5733 5713 5696 5684 5666 5656 5652 5647 5641 5628 5614 5587 5556 5521 5480 5446 5419 5390 5357 5330 5306 5278 5253 5237 5212 5189 5174 5156 5144 5137 5130 5113 5095 5090 5088 5075 5065 5063 5059 5054 5043 5023 5012 5010 5006 5000 4996 4995 4998 4994 4988 4979 4972 4969 4965 4959 4958 4952 4948 4943 4939 4935 4932 4927 4924 4921 4918 4915 4911 4909 4904 4903 4899 4897 4896 4894 4890 4887 4882 4876 4871 4869 4864 4863 4859 4856 4853 4846 4844 4841 4837 4832 4830 4826 4824 4820 4817 4813 4810 4807 4805 4804 4799 4799 4794 4793 4791 4788 4787 4786 4785 4783 4782 4782 4779 4774 4775 4772 4770 4770 4771 4769 4765 4764 4764 4762 4760 4759 4759 4757 4755 4753 4751 4751 4747 4747 4746 4745 4744 4741 4738 4737 4737 4735 4736 4734 4729 4732 4734 4733 4737 4736 4739 4742 4744 4747 4748 4750 4752 4753 4755 4758 4762 4763 4768 4771 4778 4786 4796 4805 4815 4815 4816 4812 4807 4808 4807 4809 4807 4810 4809 4811 4817 4823 4824 4825 4837 4844 4857 4871 4888 4905 4913 4922 4929 4936 4948 4968 4987 5013 5033 5029 5002 4982 4971 4978 5002 5022 5039 5059 5081 5102 5122 5136 5148 5158 5168 5176 5181 5179 5176
4735 4727 4724 4726 4725 4725 4725 4725 4724 4724 4725 4729 4733 4733 4733 4737 4740 4741 4740 4746 4746 4747 4750 4749 4748 4752 4752 4760 4762 4767 4766 4772 4776 4783 4775 4758 4750 4751 4756 4753 4758 4759 4760 4763 4764 4763 4764 4762 4765 4768 4768 4766 4767 4769 4767 4770 4769 4771 4770 4770 4773 4775 4779 4782 4782 4781 4783 4782 4785 4788 4794 4796 4796 4800 4803 4807 4813 4813 4817 4819 4822 4827 4830 4836 4841 4843 4847 4850 4858 4860 4868 4875 4881 4888 4893 4901 4906 4910 4915 4924 4930 4938 4943 4949 4960 4965 4976 4986 4996 5007 5017 5027 5038 5049 5061 5070 5082 5083 5091 5101 5111 5128 5151 5163 5176 5190 5204 5219 5232 5243 5251 5261 5272 5277 5283 5290 5295 5303 5313 5332 5358 5392 5414 5439 5470 5496 5520 5539 5555 5573 5584 5594 5610 5630 5646 5677 5726 5767 5799 5803 5808 5835 5874 5925 5979 6047 6108 6142 6118 6063 6004 5955 5919 5902 5902 5921 5946 5989 6027 6069 6110 6102 6078 6098 6105 6120 6103 6068 6040 6029 6059 6099 6144 6123 6098 6065 6041 6038 6031 6022 6003 5982 5963 5946 5945 5943 5948 5954 5969 5983 6023 6050 6068 6074 6070 6061 6046 6034 6024 6012 5999 5977 5960 5932 5898 5875 5863 5843 5826 5818 5820 5835 5847 5864 5895 5910 5930 5949 5985 6021 6081 6125 6143 6157 6171 6145 6098 6066 6049 6028 5996 5959 5940 5921 5911 5900 5892 5873 5852 5836 5823 5815 5798 5765 5707 5656 5635 5632 5635 5649 5674 5698 5715 5733 5743 5754 5761 5787 5812 5839 5864 5888 5913 5944 5974 5998 6025 6047 6062 6085 6114 6130 6159 6194 6240 6275 6320 6353 6360 6326 6271 6235 6225 6233 6243 6253 6269 6289 6311 6347 6369 6392 6408 6399 6377 6350 6330 6317 6308 6299 6292 6285 6272 6254 6240 6227 6214 6203 6192 6186 6180 6198 6253 6297 6370 6426 6437 6428 6412 6398 6391 6380 6374 6374 6369 6346 6324 6305 6292 6273 6254 6239 6228 6217 6201 6187 6168 6144 6123 6103 6084 6062 6046 6020 5991 5969 5948 5928 5903 5874 5847 5822 5797 5765 5739 5718 5706 5682 5662 5650 5627 5614 5604 5589 5574 5572 5559 5546 5539 5513 5476 5441 5410 5385 5365 5344 5321 5294 5266 5238 5215 5198 5175 5158 5141 5126 5115 5106 5095 5083 5076 5069 5060 5053 5048 5046 5040 5020 5007 5003 4999 4995 4991 4987 4990 4989 4982 4978 4974 4966 4960 4955 4953 4950 4945 4940 4937 4933 4929 4926 4922 4915 4913 4912 4910 4906 4898 4898 4895 4893 4892 4891 4889 4885 4882 4877 4874 4868 4861 4859 4856 4855 4850 4847 4845 4842 4838 4833 4830 4828 4825 4820 4816 4815 4809 4807 4805 4802 4799 4796 4794 4792 4791 4789 4786 4786 4783 4783 4781 4780 4775 4775 4774 4772 4771 4773 4771 4768 4765 4764 4765 4762 4759 4756 4759 4757 4755 4753 4752 4750 4749 4746 4743 4743 4744 4740 4739 4737 4734 4734 4736 4734 4731 4729 4731 4732 4736 4737 4736 4741 4744 4751 4749 4747 4751 4755 4754 4756 4760 4760 4764 4769 4778 4791 4804 4817 4829 4830 4824 4819 4814 4814 4811 4810 4810 4812 4814 4818 4820 4827 4832 4833 4840 4846 4855 4869 4880 4893 4902 4909 4917 4920 4938 4961 4982 5013 5039 5043 5021 4996 4986 4985 4998 5011 5025 5048 5072 5096 5117 5128 5142 5152 5162 5172 5184 5192 5193
4737 4727 4725 4725 4725 4726 4726 4724 4724 4723 4727 4730 4732 4735 4736 4738 4738 4739 4737 4741 4743 4744 4743 4745 4744 4750 4751 4753 4749 4755 4758 4764 4768 4774 4772 4757 4750 4754 4759 4756 4758 4758 4760 4764 4764 4764 4765 4764 4766 4766 4766 4766 4768 4767 4766 4768 4770 4770 4769 4770 4774 4775 4776 4777 4776 4780 4783 4786 4786 4791 4792 4793 4796 4799 4802 4805 4809 4810 4815 4818 4823 4827 4829 4836 4840 4844 4847 4852 4860 4861 4868 4874 4879 4884 4890 4897 4902 4908 4913 4919 4927 4934 4944 4954 4962 4968 4980 4988 4998 5012 5022 5032 5045 5060 5074 5085 5096 5105 5110 5110 5116 5131 5151 5172 5187 5206 5222 5239 5254 5266 5275 5284 5295 5301 5312 5318 5319 5318 5326 5335 5355 5379 5400 5423 5453 5480 5509 5534 5557 5573 5582 5599 5616 5635 5654 5698 5754 5796 5830 5832 5822 5833 5868 5922 5980 6038 6097 6141 6161 6123 6065 6005 5979 5954 5950 5975 5999 6036 6078 6122 6150 6202 6190 6166 6145 6121 6090 6052 6021 6012 6024 6056 6123 6143 6114 6089 6065 6047 6042 6029 6009 5993 5983 5974 5977 5988 6000 6014 6031 6050 6080 6089 6085 6080 6074 6070 6060 6045 6031 6018 5999 5976 5946 5916 5883 5863 5850 5833 5816 5809 5808 5816 5826 5845 5874 5900 5934 5965 6013 6059 6079 6078 6080 6103 6140 6158 6143 6120 6098 6075 6040 6000 5975 5941 5924 5913 5888 5866 5843 5837 5846 5850 5820 5770 5714 5666 5635 5625 5630 5641 5662 5691 5721 5745 5756 5774 5794 5817 5835 5854 5879 5905 5931 5953 5979 5998 6019 6041 6072 6096 6113 6105 6130 6174 6216 6241 6266 6299 6318 6282 6235 6214 6209 6217 6228 6235 6246 6270 6292 6315 6352 6384 6421 6431 6401 6360 6333 6316 6304 6291 6278 6265 6246 6223 6206 6193 6183 6176 6174 6173 6171 6174 6218 6273 6347 6406 6450 6486 6488 6470 6453 6432 6419 6403 6388 6362 6338 6316 6301 6288 6264 6242 6224 6211 6196 6180 6161 6141 6119 6103 6084 6066 6050 6026 6003 5976 5952 5929 5903 5879 5853 5828 5812 5793 5779 5764 5748 5722 5698 5683 5656 5630 5605 5580 5554 5527 5509 5494 5481 5462 5439 5409 5380 5351 5336 5318 5306 5284 5259 5237 5213 5197 5180 5162 5144 5127 5111 5102 5088 5079 5071 5061 5054 5045 5040 5039 5032 5020 5002 4998 4993 4991 4985 4982 4982 4982 4980 4976 4974 4962 4955 4952 4950 4946 4941 4939 4935 4931 4927 4923 4920 4916 4913 4909 4906 4903 4900 4898 4893 4893 4892 4888 4886 4884 4879 4876 4872 4871 4866 4859 4856 4853 4849 4847 4843 4840 4837 4833 4830 4826 4823 4819 4816 4813 4811 4806 4804 4801 4799 4797 4794 4792 4791 4788 4785 4784 4782 4779 4778 4775 4772 4773 4773 4771 4770 4769 4768 4766 4764 4765 4765 4762 4761 4759 4759 4757 4753 4751 4751 4747 4748 4746 4746 4742 4743 4739 4739 4735 4734 4736 4734 4733 4730 4727 4728 4732 4735 4734 4735 4740 4747 4750 4748 4747 4752 4751 4753 4754 4757 4760 4763 4770 4784 4800 4814 4831 4842 4842 4829 4824 4821 4816 4813 4815 4814 4813 4819 4822 4821 4828 4833 4837 4839 4849 4852 4861 4869 4878 4886 4895 4906 4916 4932 4953 4980 5009 5033 5049 5040 5021 5006 4994 4998 5007 5016 5034 5058 5079 5097 5113 5128 5143 5153 5167 5184 5196 5201
4737 4729 4729 4727 4725 4727 4724 4724 4725 4729 4732 4735 4734 4738 4739 4734 4736 4739 4739 4738 4742 4745 4744 4744 4750 4747 4749 4751 4750 4751 4751 4753 4759 4759 4759 4751 4748 4754 4755 4755 4755 4757 4756 4761 4764 4763 4766 4763 4765 4763 4764 4764 4766 4768 4768 4766 4767 4766 4768 4770 4769 4775 4775 4778 4775 4779 4781 4786 4788 4788 4786 4789 4795 4800 4802 4803 4807 4812 4813 4816 4822 4826 4830 4833 4837 4843 4850 4855 4859 4861 4866 4871 4876 4880 4887 4895 4899 4906 4913 4920 4929 4937 4947 4957 4968 4978 4990 4999 5008 5020 5029 5044 5055 5073 5086 5100 5114 5123 5122 5124 5129 5135 5150 5175 5196 5216 5236 5253 5269 5281 5296 5311 5323 5330 5341 5345 5349 5348 5348 5352 5360 5375 5392 5417 5442 5467 5496 5527 5552 5568 5583 5601 5617 5636 5670 5716 5783 5828 5870 5880 5865 5863 5885 5943 5984 6036 6090 6167 6201 6196 6159 6116 6085 6057 6023 6042 6056 6095 6135 6168 6198 6198 6162 6128 6100 6075 6054 6029 6009 6001 6005 6035 6094 6152 6153 6134 6104 6092 6081 6066 6051 6039 6031 6021 6032 6063 6068 6078 6093 6113 6119 6107 6088 6082 6078 6076 6070 6063 6049 6038 6010 5971 5930 5902 5872 5851 5835 5821 5810 5800 5794 5796 5803 5822 5851 5896 5929 5963 6016 6043 6032 6020 6025 6053 6090 6123 6150 6164 6156 6137 6107 6059 6016 5971 5945 5934 5928 5897 5882 5871 5875 5877 5827 5776 5713 5668 5637 5623 5622 5632 5650 5678 5702 5727 5751 5772 5786 5808 5828 5856 5884 5908 5933 5946 5963 5975 5990 6023 6056 6078 6073 6061 6089 6132 6165 6183 6205 6234 6266 6252 6218 6199 6200 6203 6196 6193 6194 6219 6254 6279 6322 6358 6395 6425 6394 6356 6323 6297 6281 6258 6234 6216 6196 6173 6157 6146 6145 6152 6157 6162 6155 6159 6196 6250 6309 6361 6410 6458 6496 6496 6475 6445 6424 6410 6394 6372 6354 6331 6318 6299 6278 6255 6236 6217 6197 6178 6160 6144 6125 6106 6086 6066 6048 6030 6006 5982 5958 5939 5918 5907 5897 5885 5858 5848 5838 5820 5802 5788 5760 5732 5703 5679 5652 5628 5594 5558 5527 5495 5467 5440 5421 5405 5397 5380 5363 5341 5311 5280 5253 5234 5216 5200 5182 5167 5145 5127 5112 5104 5088 5075 5063 5054 5048 5040 5033 5031 5027 5016 4999 4992 4987 4984 4981 4978 4977 4976 4973 4971 4969 4961 4955 4949 4945 4942 4939 4937 4931 4928 4925 4921 4917 4915 4912 4908 4904 4901 4897 4894 4891 4888 4887 4884 4882 4880 4878 4876 4872 4870 4862 4857 4853 4850 4847 4845 4842 4839 4834 4831 4828 4825 4822 4819 4815 4812 4810 4806 4803 4802 4799 4797 4795 4792 4790 4788 4786 4783 4781 4780 4778 4776 4775 4774 4772 4771 4769 4768 4769 4767 4764 4764 4764 4760 4758 4757 4756 4755 4754 4750 4748 4747 4746 4746 4746 4742 4739 4738 4739 4738 4737 4736 4732 4733 4729 4728 4728 4730 4736 4737 4740 4746 4748 4745 4746 4747 4749 4750 4753 4757 4759 4760 4763 4773 4786 4805 4822 4840 4845 4840 4839 4835 4834 4834 4827 4824 4820 4822 4818 4820 4823 4828 4830 4834 4838 4847 4852 4859 4866 4871 4878 4890 4904 4917 4932 4955 4980 5007 5038 5055 5053 5046 5032 5014 5006 5013 5024 5032 5046 5061 5078 5098 5118 5137 5154 5167 5182 5190 5203
4746 4738 4733 4729 4727 4725 4725 4726 4725 4730 4737 4743 4738 4738 4737 4733 4735 4737 4737 4740 4738 4743 4744 4743 4743 4744 4747 4745 4749 4749 4749 4745 4752 4750 4751 4748 4746 4752 4755 4753 4753 4757 4757 4760 4761 4763 4765 4766 4763 4760 4762 4759 4763 4766 4765 4764 4764 4767 4771 4769 4772 4773 4775 4777 4775 4779 4780 4783 4785 4786 4785 4785 4795 4800 4803 4803 4807 4809 4811 4814 4820 4824 4828 4832 4832 4837 4845 4849 4856 4859 4863 4869 4875 4879 4883 4890 4901 4906 4913 4922 4930 4940 4949 4962 4975 4986 4997 5009 5018 5027 5038 5054 5067 5083 5102 5114 5126 5136 5140 5147 5146 5149 5154 5171 5192 5213 5235 5254 5274 5293 5313 5326 5339 5349 5360 5371 5376 5377 5376 5377 5378 5385 5396 5414 5436 5459 5487 5519 5552 5577 5591 5604 5620 5644 5687 5736 5785 5853 5897 5916 5907 5897 5907 5940 5982 6064 6146 6166 6168 6157 6140 6100 6068 6047 6047 6068 6099 6124 6162 6185 6179 6151 6111 6078 6046 6021 6004 5998 5996 5992 5997 6025 6089 6142 6186 6189 6164 6139 6121 6105 6089 6080 6077 6087 6101 6116 6135 6150 6165 6176 6147 6118 6096 6092 6092 6092 6086 6080 6071 6058 6022 5971 5938 5907 5869 5852 5827 5806 5792 5786 5785 5782 5785 5800 5837 5881 5919 5964 5996 5997 5981 5977 5985 6023 6053 6080 6111 6152 6190 6189 6156 6104 6064 6035 6011 5974 5954 5952 5945 5937 5933 5896 5841 5790 5728 5674 5637 5615 5610 5617 5635 5658 5684 5700 5719 5741 5770 5797 5819 5848 5877 5900 5920 5934 5938 5946 5961 5976 6004 6015 6017 6018 6044 6081 6107 6127 6145 6176 6204 6223 6199 6184 6186 6178 6171 6163 6164 6189 6221 6242 6279 6333 6374 6372 6354 6317 6281 6245 6221 6208 6194 6179 6161 6141 6125 6121 6119 6129 6139 6147 6144 6145 6167 6222 6268 6315 6357 6406 6444 6471 6481 6457 6436 6410 6386 6373 6355 6337 6325 6308 6291 6272 6250 6229 6208 6184 6168 6151 6135 6116 6096 6078 6063 6059 6048 6032 6001 5978 5972 5975 5965 5948 5929 5916 5902 5887 5864 5847 5823 5798 5763 5733 5709 5681 5650 5613 5573 5542 5514 5488 5474 5460 5443 5417 5388 5362 5326 5293 5259 5236 5216 5197 5177 5163 5146 5129 5115 5100 5086 5071 5057 5050 5042 5035 5029 5024 5020 5010 4997 4989 4984 4980 4977 4975 4971 4969 4969 4966 4964 4962 4953 4947 4941 4938 4935 4932 4929 4925 4922 4919 4916 4915 4913 4908 4903 4900 4895 4892 4889 4885 4883 4881 4879 4877 4875 4872 4870 4863 4856 4854 4851 4847 4845 4843 4840 4836 4831 4830 4827 4824 4822 4818 4815 4813 4809 4805 4804 4802 4799 4797 4794 4791 4790 4788 4786 4784 4783 4782 4778 4778 4776 4775 4775 4772 4770 4769 4768 4766 4763 4761 4760 4760 4759 4757 4756 4754 4752 4751 4750 4746 4745 4744 4744 4742 4739 4737 4738 4737 4735 4735 4732 4731 4731 4732 4730 4730 4738 4737 4737 4743 4744 4742 4744 4744 4745 4748 4750 4755 4758 4757 4761 4772 4786 4802 4824 4846 4851 4852 4853 4848 4853 4850 4841 4831 4827 4825 4820 4823 4826 4829 4832 4833 4841 4847 4851 4858 4865 4869 4879 4892 4907 4921 4939 4964 4986 5015 5041 5061 5069 5065 5051 5031 5018 5026 5044 5059 5068 5074 5080 5094 5113 5136 5158 5169 5180 5187 5200
4758 4745 4741 4738 4739 4732 4728 4729 4734 4743 4747 4746 4739 4738 4736 4732 4733 4734 4739 4740 4739 4740 4742 4743 4743 4741 4744 4744 4746 4748 4749 4748 4752 4751 4751 4747 4749 4750 4753 4755 4755 4758 4758 4760 4757 4762 4762 4761 4763 4764 4764 4763 4763 4765 4762 4766 4767 4769 4766 4768 4771 4772 4774 4778 4780 4780 4779 4786 4785 4785 4783 4790 4793 4795 4802 4802 4805 4808 4810 4814 4817 4823 4826 4833 4834 4838 4842 4845 4852 4861 4863 4866 4871 4877 4883 4891 4897 4907 4917 4927 4939 4948 4960 4973 4985 4997 5010 5018 5029 5041 5052 5063 5083 5096 5111 5130 5146 5153 5160 5163 5166 5168 5168 5173 5187 5206 5229 5252 5276 5298 5322 5338 5357 5374 5385 5390 5400 5398 5404 5406 5406 5405 5412 5424 5444 5466 5492 5527 5554 5576 5593 5611 5623 5651 5704 5739 5779 5861 5913 5941 5935 5936 5951 5978 6030 6090 6136 6138 6113 6101 6091 6060 6030 6012 6010 6030 6061 6092 6135 6154 6131 6102 6066 6028 5998 5975 5966 5973 5981 5982 5996 6027 6088 6142 6187 6193 6165 6134 6110 6093 6079 6072 6071 6080 6098 6130 6176 6210 6218 6208 6163 6134 6110 6106 6103 6105 6100 6095 6086 6077 6047 6003 5964 5932 5889 5859 5826 5793 5774 5770 5770 5767 5769 5780 5813 5852 5895 5942 5960 5954 5950 5958 5981 5999 6030 6060 6090 6129 6183 6223 6203 6164 6122 6092 6066 6035 6017 6007 6009 5998 5958 5903 5845 5792 5733 5676 5641 5615 5607 5606 5619 5643 5665 5680 5695 5721 5757 5781 5806 5837 5867 5890 5906 5912 5913 5915 5920 5931 5942 5953 5960 5972 6002 6028 6048 6066 6095 6121 6148 6167 6167 6164 6168 6154 6150 6151 6158 6170 6196 6225 6259 6313 6326 6313 6289 6270 6247 6221 6203 6188 6177 6166 6150 6134 6119 6115 6109 6115 6127 6128 6127 6120 6131 6176 6222 6258 6298 6343 6389 6432 6461 6452 6433 6411 6385 6366 6347 6329 6318 6304 6284 6269 6246 6227 6208 6196 6184 6176 6164 6161 6149 6143 6134 6135 6108 6092 6072 6061 6044 6042 6028 6010 5990 5969 5949 5928 5909 5886 5858 5826 5790 5755 5726 5704 5680 5650 5617 5594 5570 5548 5531 5504 5467 5425 5387 5357 5316 5283 5250 5228 5208 5188 5172 5155 5137 5124 5109 5094 5080 5061 5049 5043 5036 5029 5023 5018 5013 5007 4998 4992 4983 4976 4973 4971 4966 4966 4963 4961 4957 4955 4950 4943 4940 4934 4930 4929 4925 4922 4919 4916 4914 4911 4908 4905 4901 4898 4894 4891 4885 4885 4880 4875 4875 4876 4873 4870 4865 4858 4852 4850 4849 4846 4842 4839 4837 4834 4830 4828 4825 4823 4820 4818 4815 4814 4809 4806 4804 4802 4799 4795 4793 4793 4790 4788 4786 4784 4781 4781 4781 4780 4776 4775 4774 4772 4771 4769 4766 4767 4761 4762 4760 4759 4757 4756 4754 4754 4750 4752 4749 4748 4745 4745 4745 4740 4739 4738 4737 4736 4735 4733 4733 4730 4731 4729 4729 4727 4736 4734 4733 4736 4741 4738 4739 4742 4742 4744 4750 4754 4754 4757 4759 4767 4784 4802 4823 4845 4857 4867 4873 4870 4871 4857 4841 4838 4840 4833 4825 4823 4826 4830 4837 4840 4847 4849 4849 4854 4861 4871 4885 4894 4907 4924 4943 4972 4996 5021 5047 5063 5075 5076 5063 5042 5032 5038 5060 5077 5090 5099 5097 5103 5123 5140 5158 5170 5180 5192 5204
4768 4760 4757 4751 4751 4744 4747 4745 4750 4756 4753 4745 4738 4738 4733 4735 4732 4734 4738 4735 4735 4740 4739 4738 4738 4739 4745 4748 4745 4744 4745 4748 4751 4750 4749 4748 4743 4746 4751 4758 4757 4759 4759 4762 4762 4759 4756 4758 4759 4758 4760 4764 4761 4765 4765 4767 4767 4768 4767 4770 4771 4771 4772 4779 4779 4778 4781 4786 4786 4786 4787 4793 4793 4794 4798 4802 4803 4810 4813 4812 4816 4823 4825 4829 4831 4836 4842 4845 4851 4856 4860 4863 4870 4876 4884 4892 4900 4911 4920 4933 4944 4958 4971 4981 4996 5008 5020 5030 5043 5056 5068 5084 5093 5110 5129 5142 5152 5168 5174 5182 5184 5185 5189 5190 5192 5205 5223 5247 5270 5295 5323 5350 5369 5388 5400 5405 5415 5418 5421 5429 5429 5428 5432 5444 5461 5483 5510 5538 5564 5584 5601 5615 5623 5652 5693 5748 5818 5877 5930 5976 5998 5995 6002 6031 6069 6101 6105 6086 6056 6042 6039 6016 5989 5974 5972 5989 6014 6053 6088 6109 6081 6050 6020 5989 5969 5957 5961 5971 5974 5980 5998 6041 6113 6173 6186 6165 6138 6116 6097 6078 6070 6067 6063 6060 6062 6094 6151 6201 6234 6218 6171 6144 6126 6118 6112 6112 6112 6109 6104 6102 6080 6046 6012 5984 5950 5910 5852 5810 5779 5767 5760 5754 5764 5760 5783 5823 5860 5905 5922 5919 5934 5956 5980 6014 6049 6067 6099 6138 6177 6208 6230 6213 6176 6149 6127 6103 6081 6058 6049 6011 5961 5905 5850 5797 5736 5686 5651 5627 5603 5598 5608 5629 5653 5665 5680 5707 5737 5762 5790 5821 5854 5870 5884 5886 5886 5886 5881 5882 5889 5904 5913 5924 5952 5974 5994 6015 6037 6066 6089 6112 6128 6140 6148 6144 6137 6140 6146 6162 6194 6222 6245 6300 6298 6279 6270 6254 6238 6223 6211 6198 6184 6167 6152 6134 6115 6105 6098 6099 6104 6109 6112 6107 6100 6132 6173 6211 6241 6281 6328 6379 6403 6397 6399 6394 6365 6344 6325 6305 6286 6266 6244 6221 6201 6184 6173 6166 6164 6168 6176 6188 6196 6206 6197 6181 6153 6122 6099 6083 6081 6073 6053 6021 5988 5951 5925 5903 5879 5857 5836 5809 5779 5746 5714 5676 5656 5642 5623 5601 5578 5557 5529 5493 5459 5418 5383 5348 5316 5279 5246 5215 5195 5177 5159 5142 5129 5114 5101 5086 5072 5057 5046 5035 5028 5023 5016 5012 5007 5000 4993 4989 4980 4973 4970 4968 4964 4961 4959 4956 4952 4951 4946 4938 4933 4930 4929 4927 4923 4919 4918 4914 4910 4906 4902 4901 4900 4897 4895 4888 4882 4882 4879 4874 4874 4873 4871 4869 4862 4856 4851 4848 4846 4842 4838 4835 4834 4831 4829 4828 4824 4821 4818 4817 4812 4812 4810 4808 4803 4800 4797 4795 4795 4793 4791 4788 4789 4785 4781 4783 4781 4779 4777 4775 4772 4771 4772 4770 4768 4765 4765 4762 4760 4759 4756 4756 4755 4754 4752 4751 4749 4746 4745 4746 4744 4740 4739 4738 4736 4734 4734 4733 4731 4731 4731 4729 4725 4727 4738 4732 4729 4733 4736 4735 4737 4736 4740 4744 4752 4753 4747 4754 4759 4768 4784 4801 4818 4841 4861 4876 4882 4878 4866 4853 4846 4844 4842 4834 4830 4829 4829 4834 4837 4841 4848 4848 4853 4857 4863 4871 4883 4896 4912 4930 4954 4979 5005 5031 5051 5064 5068 5071 5065 5052 5047 5047 5059 5074 5094 5107 5112 5118 5132 5149 5161 5171 5183 5196 5208
4772 4772 4770 4768 4763 4761 4763 4769 4771 4763 4755 4743 4737 4735 4733 4734 4735 4737 4737 4738 4735 4737 4736 4739 4739 4738 4748 4749 4743 4744 4745 4749 4748 4747 4747 4749 4750 4748 4754 4759 4758 4761 4760 4759 4762 4761 4760 4756 4754 4761 4758 4761 4762 4763 4761 4766 4765 4765 4764 4766 4764 4769 4774 4774 4776 4775 4776 4784 4785 4789 4789 4791 4791 4795 4799 4801 4802 4807 4810 4811 4814 4821 4826 4830 4831 4837 4841 4845 4849 4852 4857 4864 4870 4875 4882 4891 4903 4915 4928 4941 4955 4965 4980 4994 5006 5017 5032 5046 5061 5076 5092 5109 5116 5129 5142 5157 5171 5181 5191 5202 5204 5213 5212 5212 5209 5212 5223 5242 5269 5296 5323 5354 5376 5395 5407 5418 5425 5432 5439 5443 5447 5450 5457 5464 5477 5492 5516 5541 5567 5586 5599 5611 5629 5655 5691 5756 5807 5865 5917 5983 6030 6054 6069 6076 6075 6059 6039 6022 6004 5988 5983 5967 5945 5938 5935 5952 5980 6012 6048 6053 6026 5998 5977 5961 5956 5957 5960 5966 5965 5977 5992 6054 6135 6180 6172 6143 6118 6093 6071 6059 6051 6052 6048 6046 6039 6065 6124 6181 6234 6242 6200 6169 6146 6129 6122 6118 6119 6120 6122 6117 6108 6093 6077 6042 5997 5941 5887 5837 5801 5785 5758 5748 5751 5745 5761 5785 5822 5859 5882 5891 5915 5946 5980 6023 6050 6068 6096 6124 6127 6159 6182 6192 6203 6198 6177 6158 6125 6080 6042 5990 5936 5886 5843 5792 5749 5699 5664 5629 5601 5592 5599 5616 5635 5649 5665 5691 5715 5742 5776 5808 5834 5854 5861 5861 5850 5840 5836 5842 5857 5876 5885 5894 5911 5931 5961 5972 5992 6014 6037 6060 6087 6123 6133 6131 6133 6134 6138 6154 6175 6195 6219 6279 6294 6279 6265 6251 6239 6228 6220 6209 6196 6170 6141 6117 6101 6094 6091 6085 6080 6076 6079 6079 6072 6090 6124 6161 6188 6229 6278 6336 6353 6329 6341 6359 6333 6307 6285 6271 6250 6224 6204 6183 6163 6148 6131 6121 6114 6117 6131 6146 6164 6186 6187 6161 6141 6113 6085 6060 6050 6038 6024 6001 5965 5926 5886 5855 5829 5802 5782 5761 5735 5711 5688 5660 5631 5607 5583 5559 5537 5518 5499 5476 5439 5400 5368 5338 5300 5269 5235 5207 5183 5166 5148 5129 5117 5103 5090 5077 5063 5051 5041 5030 5022 5017 5011 5004 5000 4994 4988 4985 4978 4972 4970 4965 4961 4958 4955 4951 4948 4945 4940 4935 4930 4927 4923 4922 4918 4914 4913 4912 4908 4905 4901 4899 4895 4892 4889 4885 4883 4879 4876 4872 4871 4867 4865 4865 4858 4852 4849 4847 4842 4838 4834 4833 4829 4828 4827 4825 4822 4819 4816 4814 4812 4810 4809 4807 4804 4800 4800 4797 4795 4792 4790 4788 4786 4787 4784 4781 4780 4778 4777 4776 4774 4771 4769 4769 4767 4765 4765 4763 4760 4760 4756 4755 4755 4755 4752 4748 4750 4746 4745 4744 4741 4741 4739 4739 4736 4735 4733 4732 4731 4732 4728 4730 4725 4723 4729 4726 4728 4731 4733 4735 4734 4736 4739 4746 4749 4747 4747 4753 4757 4769 4787 4804 4822 4843 4864 4882 4887 4879 4863 4859 4854 4854 4851 4841 4839 4832 4834 4835 4837 4843 4846 4851 4854 4859 4865 4872 4879 4892 4907 4931 4955 4979 5009 5032 5045 5054 5057 5061 5061 5058 5065 5065 5068 5069 5083 5097 5110 5125 5143 5156 5165 5172 5185 5198 5209
4765 4769 4775 4778 4777 4774 4775 4775 4771 4765 4754 4744 4736 4729 4731 4729 4733 4738 4736 4735 4737 4739 4737 4738 4739 4734 4742 4742 4737 4741 4746 4749 4750 4751 4744 4747 4748 4748 4751 4755 4759 4761 4762 4760 4762 4762 4757 4752 4751 4760 4759 4762 4762 4757 4759 4763 4763 4763 4762 4762 4763 4768 4773 4770 4773 4778 4779 4780 4781 4785 4785 4791 4793 4795 4799 4800 4802 4805 4809 4810 4813 4817 4823 4829 4834 4837 4838 4841 4849 4853 4857 4862 4872 4877 4886 4900 4911 4922 4936 4949 4963 4978 4992 5004 5019 5036 5048 5063 5083 5099 5116 5132 5143 5156 5164 5177 5188 5200 5212 5221 5227 5231 5229 5235 5234 5236 5239 5248 5265 5292 5325 5356 5380 5398 5412 5423 5431 5439 5446 5455 5461 5465 5474 5477 5491 5507 5523 5546 5565 5581 5592 5609 5633 5657 5694 5741 5801 5866 5915 5971 6035 6069 6070 6056 6030 6006 5978 5958 5943 5929 5924 5917 5906 5901 5902 5919 5950 5982 6006 6004 5983 5966 5958 5953 5957 5959 5959 5959 5959 5977 6011 6083 6150 6166 6149 6126 6103 6074 6048 6029 6030 6036 6032 6019 6014 6050 6098 6142 6197 6244 6236 6200 6172 6152 6145 6143 6142 6137 6134 6128 6124 6116 6100 6063 6013 5949 5906 5863 5822 5795 5770 5755 5744 5743 5740 5753 5779 5809 5825 5857 5883 5915 5944 5974 6003 6017 6042 6059 6073 6108 6124 6136 6170 6205 6221 6201 6161 6117 6065 6006 5959 5901 5860 5806 5754 5696 5663 5639 5596 5585 5589 5601 5615 5635 5653 5673 5702 5733 5763 5793 5817 5836 5838 5827 5810 5802 5809 5829 5840 5859 5879 5898 5915 5935 5942 5963 5970 5983 5998 6024 6056 6098 6112 6122 6121 6124 6126 6150 6171 6191 6240 6290 6309 6288 6261 6246 6239 6233 6225 6211 6187 6145 6090 6077 6077 6081 6079 6073 6069 6054 6045 6047 6042 6051 6080 6118 6154 6194 6245 6282 6279 6270 6286 6317 6311 6284 6260 6243 6223 6204 6187 6168 6151 6129 6113 6094 6072 6061 6067 6086 6115 6135 6134 6107 6089 6073 6058 6034 6010 5995 5980 5959 5937 5912 5877 5846 5809 5779 5751 5721 5693 5666 5642 5618 5604 5596 5577 5555 5529 5501 5474 5459 5430 5397 5362 5327 5288 5250 5218 5190 5175 5153 5126 5106 5098 5088 5077 5064 5054 5044 5034 5024 5017 5011 5004 4999 4996 4988 4983 4978 4972 4970 4965 4960 4956 4954 4953 4949 4946 4943 4940 4935 4932 4928 4922 4920 4915 4912 4909 4905 4903 4902 4900 4894 4892 4889 4884 4883 4880 4877 4873 4870 4867 4865 4861 4859 4856 4851 4848 4844 4840 4837 4834 4832 4829 4827 4825 4823 4820 4819 4815 4813 4811 4809 4808 4804 4802 4800 4798 4795 4794 4792 4790 4789 4786 4786 4784 4781 4781 4778 4777 4775 4774 4771 4770 4770 4768 4765 4763 4762 4759 4760 4757 4756 4755 4753 4750 4749 4749 4746 4747 4745 4742 4740 4737 4738 4738 4736 4735 4733 4732 4729 4728 4728 4727 4725 4726 4725 4724 4724 4731 4731 4729 4734 4742 4747 4740 4741 4746 4752 4758 4770 4788 4807 4825 4843 4860 4882 4890 4876 4866 4867 4871 4864 4855 4845 4841 4836 4838 4839 4840 4845 4848 4850 4857 4864 4869 4873 4881 4889 4903 4923 4944 4966 4996 5015 5028 5038 5046 5051 5053 5062 5075 5081 5086 5084 5089 5097 5108 5120 5139 5153 5162 5171 5180 5192 5202
4750 4761 4770 4775 4776 4774 4773 4773 4769 4765 4753 4744 4737 4732 4730 4730 4737 4737 4737 4742 4737 4739 4739 4741 4737 4736 4739 4741 4742 4744 4744 4747 4746 4745 4744 4748 4748 4751 4752 4754 4758 4761 4762 4763 4763 4760 4760 4757 4761 4761 4757 4754 4757 4755 4757 4761 4761 4760 4762 4764 4764 4767 4769 4773 4772 4776 4778 4781 4782 4784 4788 4792 4793 4795 4798 4802 4803 4804 4812 4813 4817 4820 4823 4827 4833 4835 4839 4843 4846 4851 4857 4862 4872 4883 4891 4903 4916 4929 4946 4960 4974 4988 5004 5020 5040 5054 5065 5082 5107 5120 5139 5152 5165 5176 5184 5199 5213 5226 5234 5242 5246 5254 5259 5265 5261 5267 5268 5272 5276 5291 5318 5348 5371 5391 5406 5418 5427 5440 5452 5462 5470 5476 5488 5495 5508 5518 5535 5551 5566 5575 5592 5610 5633 5657 5688 5740 5803 5845 5912 5974 6023 6033 6027 6009 5984 5954 5923 5898 5881 5869 5865 5861 5852 5855 5858 5874 5911 5939 5951 5952 5952 5943 5940 5940 5950 5953 5952 5950 5952 5971 6026 6113 6167 6151 6127 6105 6077 6044 6019 6004 6003 6011 5998 5995 5991 6018 6062 6110 6155 6205 6210 6197 6196 6197 6190 6183 6174 6161 6153 6147 6142 6134 6109 6074 6027 5973 5926 5882 5840 5808 5782 5755 5739 5728 5720 5729 5744 5754 5777 5812 5842 5864 5887 5914 5938 5968 5990 6002 6041 6061 6064 6086 6117 6158 6195 6188 6157 6127 6076 6018 5973 5911 5861 5807 5757 5706 5667 5645 5602 5580 5576 5586 5600 5622 5640 5662 5690 5721 5752 5778 5798 5810 5810 5793 5789 5800 5826 5850 5872 5878 5877 5893 5917 5937 5956 5966 5979 5981 5988 6008 6039 6076 6093 6107 6108 6108 6113 6138 6165 6202 6262 6316 6332 6299 6265 6247 6240 6234 6221 6192 6155 6097 6055 6042 6050 6061 6062 6062 6055 6041 6033 6031 6032 6023 6037 6069 6108 6153 6200 6221 6210 6205 6234 6278 6295 6286 6253 6225 6203 6188 6171 6156 6142 6127 6101 6073 6044 6024 6014 6035 6063 6083 6081 6059 6032 6021 6013 6002 5980 5958 5939 5919 5900 5886 5874 5860 5845 5816 5779 5742 5708 5675 5641 5609 5576 5553 5541 5525 5512 5489 5463 5436 5411 5375 5345 5318 5287 5257 5219 5186 5150 5129 5105 5088 5076 5069 5061 5051 5042 5033 5027 5018 5009 5005 4999 4994 4989 4983 4976 4973 4966 4964 4962 4960 4959 4953 4949 4945 4943 4941 4937 4933 4930 4926 4923 4918 4914 4911 4908 4905 4900 4899 4895 4890 4889 4886 4883 4880 4876 4874 4871 4869 4865 4862 4858 4856 4854 4848 4846 4846 4843 4838 4834 4832 4831 4827 4824 4821 4819 4819 4816 4815 4812 4809 4806 4803 4803 4799 4798 4796 4793 4792 4791 4789 4788 4786 4784 4784 4781 4778 4777 4776 4776 4771 4771 4770 4768 4767 4763 4761 4760 4758 4756 4755 4753 4750 4751 4749 4746 4745 4745 4743 4742 4741 4737 4736 4737 4736 4735 4732 4729 4728 4728 4728 4730 4729 4724 4723 4723 4723 4725 4727 4728 4732 4737 4740 4735 4736 4745 4747 4757 4770 4785 4799 4813 4834 4861 4886 4888 4872 4868 4880 4877 4869 4864 4856 4845 4839 4837 4839 4844 4848 4849 4851 4858 4861 4867 4872 4881 4884 4895 4910 4927 4945 4967 4985 4999 5015 5025 5033 5042 5056 5071 5080 5094 5103 5101 5102 5110 5120 5134 5146 5158 5165 5174 5184 5194
