5407 5390 5372 5348 5319 5286 5256 5242 5277 5324 5358 5386 5418 5440 5460 5464 5458 5454 5447 5441 5441 5441 5435 5427 5416 5402 5393 5387 5380 5375 5364 5355 5346 5338 5332 5323 5319 5311 5306 5304 5301 5297 5293 5289 5291 5297 5304 5313 5317 5318 5320 5320 5318 5312 5308 5303 5299 5292 5288 5281 5275 5270 5267 5270 5281 5285 5287 5296 5318 5340 5368 5391 5411 5422 5424 5414 5400 5378 5351 5325 5307 5314 5336 5356 5380 5404 5425 5462 5487 5502 5503 5495 5477 5461 5450 5446 5445 5454 5460 5466 5472 5472 5476 5479 5481 5483 5486 5487 5487 5488 5489 5498 5505 5517 5538 5556 5574 5591 5605 5612 5614 5600 5575 5536 5496 5446 5402 5360 5332 5321 5307 5280 5246 5210 5180 5160 5142 5134 5129 5129 5126 5127 5127 5126 5125 5127 5128 5136 5136 5134 5129 5124 5115 5106 5102 5100 5101 5103 5105 5106 5113 5139 5177 5217 5265 5308 5345 5368 5385 5396 5409 5429 5450 5469 5486 5506 5519 5530 5535 5535 5524 5514 5511 5510 5508 5515 5515 5510 5495 5488 5497 5528 5571 5602 5610 5593 5564 5525 5497 5468 5438 5409 5394 5399 5414 5443 5483 5527 5580 5605 5589 5549 5503 5457 5407 5367 5327 5290 5264 5235 5212 5199 5194 5194 5200 5208 5196 5177 5177 5210 5249 5286 5319 5355 5392 5427 5466 5499 5525 5540 5532 5510 5479 5443 5402 5355 5309 5271 5236 5206 5186 5197 5230 5260 5281 5303 5350 5389 5437 5475 5497 5499 5487 5480 5495 5522 5554 5586 5611 5627 5635 5639 5629 5606 5580 5566 5551 5526 5504 5480 5450 5440 5467 5503 5526 5525 5511 5496 5487 5482 5481 5477 5461 5439 5417 5395 5368 5335 5301 5270 5245 5235 5238 5228 5212 5197 5170 5143 5122 5113 5105 5089 5067 5047 5029 5022 5015 5008 4999 4996 4995 4993 4988 4987 4985 4989 5005 5021 5039 5061 5078 5092 5102 5093 5067 5049 5028 5006 4997 4988 4982 4980 4980 4976 4975 4976 4973 4965 4961 4953 4952 4945 4935 4916 4905 4901 4897 4898 4895 4893 4892 4886 4880 4883 4882 4882 4881 4883 4882 4881 4881 4881 4881 4880 4880 4879 4879 4879 4880 4879 4880 4880 4880 4882 4881 4878 4879 4879 4879 4879 4880 4879 4880 4880 4882 4881 4881 4880 4880 4879 4879 4881 4882 4880 4880 4879 4881 4879 4880 4880 4880 4883 4880 4879 4879 4879 4880 4880 4882 4884 4881 4882 4880 4882 4878 4880 4881 4883 4887 4888 4890 4895 4897 4896 4898 4898 4901 4903 4906 4907 4908 4911 4914 4917 4920 4920 4923 4924 4927 4929 4932 4933 4936 4938 4940 4945 4952 4959 4966 4975 4981 4985 4990 4995 4996 4994 4997 5000 4999 5001 5002 5001 5005 5009 5013 5016 5021 5023 5031 5033 5039 5044 5052 5060 5068 5080 5087 5097 5103 5107 5115 5122 5124 5130 5133 5131 5138 5151 5177 5198 5213 5219 5223 5235 5248 5251 5252 5256 5258 5263 5281 5303 5311 5317 5320 5323 5313 5309 5303 5302 5297 5295 5292 5287 5284 5287 5284 5283 5284 5285 5284 5288 5291 5296 5295 5295 5303 5311 5317 5323 5333 5343 5350 5355 5357 5371 5383 5393 5401 5403 5392 5380 5372 5369 5371 5377 5390 5414 5435 5451 5460 5461 5461 5473 5486 5493 5499 5507 5510 5522 5533 5537 5540 5538 5541 5539 5533 5520 5517 5516 5518 5522 5523 5526 5532 5529 5536 5538 5536 5542 5541 5542 5552 5554 5555 5553 5556
5401 5390 5378 5364 5345 5314 5285 5267 5294 5341 5382 5421 5445 5457 5465 5471 5468 5464 5466 5463 5461 5463 5461 5452 5438 5426 5417 5412 5404 5398 5386 5370 5357 5351 5342 5331 5325 5315 5313 5311 5307 5301 5299 5289 5286 5286 5290 5295 5298 5300 5305 5305 5307 5302 5299 5297 5293 5291 5282 5278 5271 5265 5264 5271 5283 5292 5298 5302 5315 5334 5352 5379 5402 5415 5419 5414 5401 5385 5363 5341 5331 5348 5372 5394 5419 5435 5445 5472 5495 5503 5503 5498 5486 5474 5463 5462 5462 5457 5461 5465 5469 5468 5471 5468 5467 5467 5465 5465 5464 5462 5462 5467 5473 5485 5503 5521 5539 5555 5569 5578 5578 5570 5550 5519 5480 5439 5396 5359 5318 5290 5266 5247 5220 5190 5167 5149 5137 5132 5130 5129 5129 5131 5131 5132 5135 5141 5150 5154 5151 5146 5139 5133 5121 5112 5105 5103 5103 5106 5106 5104 5112 5133 5169 5206 5252 5292 5322 5334 5344 5352 5367 5385 5414 5436 5458 5477 5497 5508 5504 5497 5478 5459 5448 5444 5444 5453 5461 5459 5449 5445 5463 5498 5539 5566 5589 5601 5588 5567 5543 5515 5479 5454 5444 5454 5462 5485 5512 5548 5589 5603 5574 5534 5487 5438 5393 5348 5311 5277 5249 5226 5212 5209 5208 5217 5225 5233 5218 5188 5176 5198 5237 5270 5303 5336 5373 5410 5445 5483 5509 5534 5536 5520 5492 5457 5423 5385 5343 5305 5269 5239 5210 5192 5206 5234 5274 5312 5349 5390 5427 5466 5480 5475 5466 5476 5496 5517 5536 5554 5563 5572 5587 5613 5629 5622 5603 5594 5575 5552 5531 5503 5468 5436 5435 5469 5488 5485 5462 5439 5426 5425 5430 5425 5408 5391 5375 5362 5338 5310 5284 5251 5223 5206 5197 5190 5174 5157 5137 5117 5102 5090 5078 5070 5056 5045 5032 5030 5018 5011 5003 4998 4996 4993 4992 4986 4988 4996 5013 5034 5056 5072 5095 5114 5122 5112 5088 5063 5040 5021 5009 5001 5000 4994 4993 4999 5007 5020 5015 5001 4992 4987 4982 4971 4956 4936 4914 4901 4899 4896 4894 4892 4888 4881 4880 4882 4882 4882 4883 4883 4883 4882 4882 4881 4881 4880 4882 4881 4880 4881 4881 4880 4880 4880 4880 4880 4881 4879 4879 4881 4881 4880 4881 4879 4880 4879 4879 4880 4884 4882 4881 4880 4880 4880 4880 4880 4880 4881 4882 4880 4882 4882 4881 4881 4880 4878 4878 4881 4881 4882 4881 4883 4883 4880 4884 4885 4885 4887 4891 4891 4889 4888 4889 4896 4896 4898 4901 4901 4902 4905 4908 4910 4912 4914 4916 4917 4920 4925 4926 4927 4931 4933 4935 4937 4939 4942 4945 4949 4959 4968 4977 4982 4986 4991 4996 4998 4999 5000 5002 5003 5003 5002 5004 5005 5009 5016 5018 5020 5029 5033 5041 5044 5049 5056 5065 5074 5085 5093 5101 5114 5118 5123 5128 5134 5139 5144 5146 5147 5151 5164 5190 5213 5224 5233 5239 5245 5250 5252 5250 5247 5251 5255 5272 5288 5293 5292 5293 5293 5280 5273 5269 5266 5261 5259 5258 5257 5259 5261 5261 5258 5258 5262 5264 5267 5274 5277 5277 5283 5288 5294 5297 5301 5312 5321 5329 5334 5340 5350 5356 5363 5366 5362 5354 5352 5355 5360 5366 5374 5394 5416 5436 5454 5462 5468 5474 5477 5498 5507 5504 5508 5517 5522 5533 5541 5544 5550 5549 5542 5531 5524 5517 5518 5518 5521 5523 5527 5529 5527 5532 5530 5535 5540 5541 5541 5545 5546 5550 5554 5556
5387 5380 5377 5373 5360 5341 5311 5292 5306 5345 5386 5427 5451 5463 5469 5475 5476 5478 5483 5484 5483 5483 5479 5474 5461 5451 5444 5434 5426 5419 5406 5388 5370 5359 5348 5334 5325 5326 5326 5324 5316 5310 5304 5295 5291 5285 5284 5282 5280 5284 5289 5290 5293 5294 5292 5290 5287 5283 5279 5269 5260 5258 5256 5263 5274 5294 5310 5320 5327 5334 5347 5371 5386 5390 5384 5372 5365 5358 5339 5335 5342 5373 5392 5405 5419 5428 5438 5451 5455 5471 5478 5477 5470 5460 5459 5464 5466 5464 5466 5466 5466 5466 5464 5463 5460 5456 5453 5446 5445 5442 5442 5438 5446 5455 5471 5484 5502 5518 5531 5540 5541 5540 5528 5504 5469 5422 5376 5344 5313 5286 5253 5223 5200 5181 5162 5145 5140 5134 5130 5132 5133 5136 5140 5150 5161 5170 5176 5177 5166 5156 5148 5140 5127 5115 5106 5102 5101 5104 5105 5104 5111 5129 5160 5191 5229 5268 5287 5290 5290 5301 5321 5351 5374 5401 5423 5450 5465 5469 5459 5447 5427 5407 5392 5387 5388 5396 5405 5406 5400 5403 5435 5461 5485 5520 5547 5581 5605 5604 5585 5560 5530 5506 5500 5509 5516 5534 5560 5589 5606 5593 5558 5520 5475 5424 5376 5328 5295 5260 5236 5221 5215 5223 5237 5258 5268 5265 5245 5207 5184 5189 5214 5244 5275 5311 5347 5384 5415 5444 5474 5499 5515 5519 5504 5478 5448 5414 5383 5347 5312 5273 5240 5215 5202 5207 5247 5293 5330 5371 5406 5435 5451 5455 5454 5467 5474 5481 5493 5505 5514 5530 5563 5599 5613 5595 5595 5601 5591 5573 5543 5507 5477 5449 5426 5437 5456 5450 5424 5396 5381 5377 5378 5376 5363 5348 5334 5321 5303 5283 5265 5238 5211 5184 5173 5159 5144 5127 5114 5102 5088 5077 5068 5059 5051 5043 5033 5028 5019 5012 5008 5002 4999 4994 4992 4992 4996 5010 5034 5063 5082 5098 5112 5131 5135 5121 5098 5068 5048 5033 5024 5023 5021 5021 5023 5023 5031 5047 5053 5044 5033 5020 5011 5001 4982 4958 4925 4903 4900 4896 4895 4890 4886 4883 4885 4884 4883 4883 4884 4883 4884 4884 4882 4881 4883 4882 4883 4882 4882 4882 4881 4881 4881 4882 4881 4882 4881 4881 4880 4881 4881 4883 4882 4880 4881 4880 4882 4887 4885 4884 4881 4880 4882 4879 4881 4883 4879 4882 4884 4884 4883 4881 4878 4878 4879 4879 4880 4881 4881 4881 4885 4884 4883 4885 4885 4884 4887 4886 4890 4889 4892 4889 4895 4897 4898 4898 4902 4902 4904 4907 4911 4913 4913 4917 4917 4920 4922 4926 4930 4932 4934 4937 4939 4941 4942 4945 4949 4955 4965 4974 4981 4986 4991 4994 5000 5003 5002 5002 5005 5008 5008 5006 5007 5011 5013 5019 5024 5029 5035 5041 5047 5052 5060 5069 5077 5087 5097 5104 5110 5118 5123 5127 5132 5139 5144 5147 5153 5158 5164 5179 5203 5222 5232 5237 5239 5243 5249 5244 5234 5229 5231 5237 5248 5256 5259 5254 5251 5249 5242 5235 5232 5230 5229 5230 5233 5232 5234 5233 5234 5237 5243 5246 5250 5254 5257 5259 5263 5268 5273 5274 5278 5284 5292 5299 5308 5315 5321 5326 5331 5337 5339 5338 5350 5365 5371 5374 5378 5383 5397 5419 5439 5456 5469 5475 5483 5493 5510 5518 5514 5513 5515 5518 5524 5532 5544 5556 5557 5553 5539 5528 5521 5518 5523 5524 5523 5525 5528 5528 5531 5532 5536 5537 5541 5543 5546 5551 5551 5552 5553
5369 5366 5367 5368 5367 5359 5337 5320 5324 5351 5384 5421 5442 5456 5465 5475 5481 5492 5498 5501 5503 5502 5498 5492 5483 5473 5468 5456 5446 5433 5419 5403 5378 5359 5347 5339 5343 5348 5348 5341 5330 5323 5314 5306 5298 5289 5282 5281 5278 5276 5277 5278 5280 5282 5280 5280 5278 5273 5268 5262 5264 5262 5258 5257 5259 5275 5297 5320 5340 5351 5360 5365 5357 5344 5330 5316 5307 5305 5301 5299 5314 5335 5354 5375 5386 5386 5394 5404 5408 5426 5439 5438 5428 5428 5443 5458 5471 5470 5468 5467 5466 5465 5465 5465 5454 5450 5444 5433 5429 5426 5425 5413 5414 5423 5440 5454 5467 5482 5495 5503 5503 5502 5502 5487 5450 5408 5363 5326 5290 5265 5237 5210 5188 5173 5157 5145 5138 5134 5134 5141 5148 5157 5166 5179 5194 5207 5206 5191 5182 5173 5161 5149 5138 5123 5111 5105 5106 5105 5107 5107 5110 5127 5152 5179 5216 5242 5249 5244 5243 5253 5281 5317 5342 5365 5386 5416 5428 5424 5408 5392 5374 5355 5338 5330 5332 5343 5347 5352 5354 5379 5401 5419 5438 5477 5522 5562 5608 5641 5636 5615 5582 5553 5550 5561 5574 5592 5611 5620 5605 5567 5530 5493 5448 5404 5357 5314 5274 5245 5229 5222 5228 5246 5275 5299 5312 5303 5273 5240 5205 5196 5203 5220 5246 5283 5318 5346 5372 5399 5426 5448 5478 5505 5516 5502 5476 5448 5418 5386 5356 5320 5281 5249 5223 5206 5217 5266 5311 5350 5384 5408 5429 5435 5440 5450 5453 5459 5475 5491 5507 5536 5566 5586 5573 5550 5555 5579 5589 5585 5562 5538 5513 5484 5451 5426 5422 5417 5413 5410 5398 5367 5346 5329 5315 5300 5289 5278 5267 5256 5234 5210 5186 5166 5155 5143 5128 5118 5104 5089 5078 5069 5059 5051 5044 5037 5030 5021 5015 5010 5008 5005 5003 4996 4994 4997 5008 5032 5064 5100 5126 5144 5150 5151 5140 5124 5101 5076 5059 5050 5052 5053 5060 5057 5057 5055 5060 5069 5076 5073 5067 5058 5043 5031 5005 4964 4929 4909 4902 4895 4891 4889 4886 4882 4884 4884 4882 4882 4883 4882 4884 4884 4885 4883 4883 4882 4882 4881 4882 4883 4883 4882 4881 4881 4882 4883 4882 4881 4882 4882 4880 4881 4881 4880 4882 4881 4882 4882 4880 4882 4885 4882 4882 4882 4883 4882 4882 4883 4881 4882 4884 4881 4879 4879 4880 4879 4881 4883 4881 4881 4883 4887 4882 4884 4882 4886 4883 4883 4884 4892 4894 4892 4894 4896 4898 4900 4904 4903 4904 4908 4913 4914 4915 4919 4919 4922 4926 4927 4932 4934 4936 4939 4943 4945 4945 4947 4953 4959 4970 4978 4983 4989 4992 4993 4996 4999 5002 5005 5006 5008 5009 5009 5010 5014 5019 5028 5030 5036 5043 5050 5057 5062 5069 5076 5085 5093 5102 5110 5115 5121 5127 5131 5137 5144 5148 5153 5156 5160 5165 5182 5205 5220 5230 5233 5232 5231 5230 5221 5214 5213 5210 5209 5218 5220 5215 5214 5211 5208 5207 5205 5204 5205 5207 5210 5212 5213 5215 5218 5222 5228 5232 5233 5240 5243 5246 5250 5251 5256 5261 5263 5270 5277 5282 5289 5298 5303 5308 5313 5319 5330 5343 5353 5371 5390 5394 5394 5397 5406 5418 5435 5454 5468 5475 5484 5494 5502 5518 5532 5530 5523 5517 5517 5516 5525 5538 5549 5560 5561 5551 5532 5527 5523 5521 5524 5522 5526 5526 5527 5531 5533 5537 5540 5542 5547 5546 5552 5552 5549 5556
5352 5353 5358 5361 5363 5364 5354 5348 5351 5369 5391 5410 5426 5442 5458 5470 5484 5498 5508 5511 5513 5516 5514 5509 5502 5493 5488 5476 5462 5448 5429 5408 5376 5362 5362 5364 5371 5377 5372 5364 5354 5345 5334 5321 5311 5298 5295 5288 5285 5280 5279 5277 5274 5271 5271 5270 5268 5266 5264 5265 5266 5261 5258 5259 5256 5253 5267 5286 5309 5333 5346 5328 5310 5293 5278 5267 5261 5261 5258 5255 5268 5279 5296 5320 5336 5336 5344 5354 5360 5385 5395 5391 5390 5391 5414 5436 5457 5462 5470 5470 5470 5468 5465 5461 5455 5447 5439 5428 5420 5412 5402 5390 5388 5398 5412 5425 5438 5452 5458 5463 5460 5457 5461 5446 5418 5379 5337 5302 5273 5242 5212 5190 5172 5160 5149 5143 5134 5137 5147 5164 5183 5199 5211 5227 5240 5251 5246 5219 5199 5185 5174 5163 5153 5137 5120 5105 5106 5109 5111 5110 5113 5127 5141 5168 5202 5215 5216 5203 5201 5218 5253 5285 5307 5319 5346 5372 5377 5370 5355 5334 5317 5300 5284 5274 5282 5290 5299 5311 5330 5348 5354 5374 5409 5452 5508 5557 5599 5647 5678 5668 5638 5613 5604 5618 5636 5645 5636 5608 5568 5531 5490 5451 5414 5377 5338 5296 5260 5238 5230 5235 5252 5284 5317 5342 5355 5346 5314 5278 5233 5205 5202 5210 5224 5258 5285 5308 5327 5353 5374 5401 5440 5480 5514 5518 5503 5482 5454 5422 5390 5359 5327 5285 5257 5225 5213 5245 5291 5328 5358 5381 5400 5423 5428 5432 5450 5469 5488 5510 5528 5538 5543 5544 5526 5504 5517 5555 5591 5606 5594 5573 5550 5520 5481 5448 5439 5446 5463 5462 5437 5399 5363 5337 5308 5286 5265 5249 5237 5222 5203 5188 5174 5162 5156 5157 5166 5149 5117 5091 5077 5067 5058 5050 5043 5034 5029 5027 5022 5017 5012 5007 5005 5001 5001 5000 5018 5050 5095 5134 5164 5187 5192 5181 5164 5135 5116 5096 5082 5078 5086 5093 5102 5104 5101 5099 5098 5104 5103 5094 5081 5070 5052 5030 4997 4960 4933 4918 4908 4898 4894 4890 4884 4884 4885 4884 4884 4884 4884 4884 4884 4883 4885 4883 4884 4883 4883 4884 4883 4883 4881 4880 4882 4882 4881 4881 4882 4882 4883 4883 4883 4882 4882 4882 4882 4884 4884 4882 4882 4883 4884 4882 4882 4882 4884 4882 4881 4882 4883 4880 4882 4885 4885 4885 4884 4884 4882 4883 4882 4882 4881 4885 4883 4884 4887 4888 4890 4888 4890 4892 4892 4898 4896 4896 4901 4902 4905 4905 4907 4910 4912 4915 4916 4919 4921 4924 4926 4928 4932 4935 4938 4941 4944 4948 4951 4951 4952 4959 4970 4977 4987 4993 4991 4990 4990 4992 4994 4998 5001 5004 5006 5010 5014 5018 5024 5028 5032 5041 5047 5057 5068 5071 5077 5082 5090 5098 5105 5111 5118 5123 5133 5136 5142 5146 5149 5155 5157 5161 5168 5188 5208 5217 5220 5217 5208 5203 5199 5198 5195 5191 5190 5185 5186 5186 5184 5186 5186 5184 5185 5186 5186 5187 5188 5192 5195 5198 5203 5210 5214 5220 5226 5228 5231 5236 5239 5243 5246 5252 5257 5263 5271 5278 5285 5292 5303 5318 5331 5340 5348 5359 5369 5381 5403 5411 5410 5413 5422 5438 5460 5478 5482 5490 5496 5501 5508 5519 5532 5539 5537 5525 5518 5519 5521 5522 5526 5535 5548 5561 5558 5544 5538 5537 5531 5531 5537 5538 5539 5542 5543 5541 5544 5551 5552 5553 5547 5555 5550 5558 5556
5331 5335 5343 5347 5355 5360 5359 5355 5357 5365 5378 5393 5407 5426 5446 5464 5481 5496 5509 5515 5521 5526 5527 5525 5522 5514 5506 5493 5477 5457 5433 5406 5388 5390 5393 5397 5403 5403 5400 5386 5378 5366 5355 5342 5330 5316 5304 5298 5293 5288 5287 5283 5275 5278 5274 5270 5269 5267 5269 5270 5264 5262 5262 5262 5262 5261 5258 5259 5267 5287 5298 5280 5266 5258 5250 5247 5242 5238 5235 5236 5242 5245 5254 5270 5281 5284 5298 5307 5322 5345 5349 5345 5350 5358 5380 5407 5428 5446 5459 5469 5470 5469 5463 5460 5455 5448 5438 5426 5414 5400 5387 5370 5362 5370 5379 5391 5411 5422 5419 5418 5415 5409 5403 5394 5368 5340 5305 5270 5248 5222 5194 5174 5159 5148 5143 5141 5142 5156 5181 5208 5229 5246 5263 5276 5288 5293 5284 5260 5229 5203 5191 5178 5163 5151 5129 5110 5107 5111 5110 5112 5117 5122 5134 5155 5176 5187 5180 5174 5176 5198 5221 5243 5260 5283 5309 5323 5325 5314 5297 5282 5262 5245 5229 5228 5236 5250 5269 5286 5301 5312 5326 5359 5401 5452 5498 5553 5602 5650 5698 5715 5696 5674 5662 5674 5678 5660 5620 5572 5530 5489 5449 5415 5381 5348 5313 5284 5254 5242 5248 5261 5283 5316 5350 5383 5400 5385 5352 5317 5273 5236 5208 5211 5224 5251 5278 5305 5319 5340 5358 5383 5420 5464 5506 5536 5534 5515 5488 5459 5427 5395 5359 5322 5276 5237 5214 5239 5272 5306 5333 5352 5374 5399 5416 5438 5460 5483 5499 5514 5521 5512 5499 5488 5475 5478 5517 5562 5601 5626 5624 5605 5580 5544 5504 5473 5482 5502 5516 5510 5480 5444 5406 5380 5349 5322 5281 5251 5234 5221 5217 5215 5209 5197 5195 5195 5189 5155 5124 5097 5077 5068 5060 5054 5047 5038 5034 5031 5024 5019 5015 5011 5010 5010 5009 5008 5026 5061 5105 5157 5191 5216 5225 5216 5188 5161 5138 5125 5116 5114 5129 5143 5155 5157 5151 5145 5143 5139 5127 5108 5080 5059 5037 5010 4982 4951 4937 4927 4914 4904 4899 4891 4883 4884 4885 4885 4884 4885 4884 4884 4883 4883 4884 4883 4885 4884 4884 4883 4882 4883 4883 4883 4881 4883 4883 4882 4882 4881 4884 4884 4883 4883 4882 4882 4881 4879 4882 4881 4882 4883 4881 4881 4883 4884 4884 4883 4882 4883 4886 4884 4885 4883 4882 4885 4882 4886 4884 4882 4884 4884 4880 4883 4884 4884 4887 4884 4888 4885 4885 4893 4891 4894 4895 4900 4902 4902 4905 4908 4908 4910 4912 4914 4917 4920 4922 4924 4927 4931 4933 4937 4939 4943 4944 4948 4952 4956 4957 4956 4959 4966 4972 4977 4979 4979 4982 4986 4989 4993 4996 4997 5003 5005 5010 5019 5025 5034 5039 5045 5054 5065 5071 5076 5085 5093 5100 5105 5111 5117 5123 5130 5134 5134 5137 5141 5143 5146 5149 5152 5164 5181 5190 5191 5190 5183 5179 5178 5180 5180 5172 5167 5164 5161 5162 5164 5166 5167 5170 5172 5173 5174 5178 5181 5184 5187 5192 5195 5199 5204 5207 5212 5217 5222 5226 5232 5237 5241 5247 5253 5263 5267 5280 5289 5299 5309 5323 5337 5350 5365 5377 5387 5401 5419 5428 5426 5431 5447 5468 5487 5502 5510 5514 5516 5525 5531 5535 5536 5540 5543 5543 5534 5527 5529 5529 5528 5527 5529 5544 5564 5574 5574 5569 5566 5564 5563 5562 5563 5571 5574 5570 5571 5575 5576 5580 5580 5578 5578 5581 5581 5578
5304 5312 5326 5335 5340 5346 5347 5347 5348 5350 5359 5372 5390 5409 5433 5456 5473 5489 5505 5520 5529 5537 5540 5541 5536 5532 5525 5513 5491 5467 5442 5421 5421 5427 5427 5426 5427 5425 5419 5411 5403 5388 5378 5361 5344 5333 5322 5311 5303 5298 5293 5288 5283 5283 5281 5277 5278 5276 5273 5268 5265 5266 5268 5269 5269 5269 5268 5266 5255 5257 5254 5248 5242 5242 5240 5236 5236 5233 5229 5225 5226 5226 5225 5231 5236 5237 5248 5260 5284 5305 5310 5314 5320 5322 5346 5376 5400 5420 5440 5454 5459 5454 5457 5459 5449 5440 5434 5427 5418 5407 5391 5368 5344 5336 5345 5363 5377 5383 5379 5369 5363 5353 5345 5333 5313 5291 5263 5237 5217 5193 5171 5154 5148 5146 5141 5146 5164 5193 5225 5255 5275 5291 5308 5324 5335 5337 5324 5295 5260 5227 5205 5187 5169 5155 5136 5115 5108 5110 5111 5113 5117 5119 5127 5139 5146 5155 5151 5150 5157 5171 5186 5205 5221 5243 5262 5273 5272 5263 5250 5235 5217 5209 5206 5212 5219 5230 5240 5256 5268 5289 5314 5356 5399 5444 5486 5534 5586 5636 5686 5738 5754 5738 5725 5711 5687 5643 5592 5549 5508 5480 5443 5416 5385 5347 5306 5275 5253 5252 5272 5296 5326 5349 5376 5414 5439 5427 5393 5354 5313 5271 5230 5218 5229 5250 5273 5296 5319 5354 5381 5409 5434 5481 5511 5557 5566 5548 5524 5490 5461 5423 5384 5348 5304 5260 5228 5229 5251 5278 5301 5320 5346 5376 5411 5437 5460 5476 5487 5492 5489 5472 5451 5448 5460 5498 5535 5580 5615 5615 5604 5603 5595 5566 5525 5505 5528 5550 5567 5551 5516 5481 5446 5405 5379 5349 5321 5293 5276 5270 5269 5270 5250 5234 5221 5196 5167 5137 5115 5095 5082 5072 5064 5056 5049 5042 5039 5035 5030 5023 5018 5016 5015 5014 5016 5012 5026 5064 5112 5167 5203 5234 5256 5248 5224 5197 5176 5159 5150 5152 5174 5190 5205 5208 5201 5191 5183 5164 5135 5101 5071 5044 5020 4999 4972 4954 4941 4931 4921 4912 4899 4891 4882 4884 4885 4884 4884 4885 4884 4885 4884 4886 4885 4884 4884 4885 4885 4883 4884 4883 4882 4884 4885 4884 4884 4883 4884 4882 4884 4884 4884 4882 4883 4884 4884 4883 4883 4883 4884 4885 4884 4885 4884 4884 4885 4883 4882 4883 4884 4883 4884 4882 4881 4883 4883 4882 4882 4883 4884 4885 4885 4885 4887 4886 4885 4885 4888 4893 4886 4891 4892 4894 4896 4899 4902 4904 4906 4908 4909 4911 4913 4916 4919 4919 4922 4924 4929 4932 4935 4937 4939 4942 4946 4950 4953 4957 4959 4961 4964 4967 4968 4972 4973 4976 4981 4984 4986 4990 4993 4997 5000 5002 5007 5013 5019 5029 5037 5042 5051 5059 5071 5082 5091 5097 5099 5102 5105 5108 5110 5113 5118 5121 5126 5129 5132 5136 5138 5139 5147 5154 5154 5154 5154 5155 5157 5156 5156 5152 5145 5142 5142 5144 5147 5151 5155 5158 5163 5165 5169 5175 5178 5181 5189 5195 5199 5200 5204 5206 5206 5210 5214 5220 5228 5236 5248 5262 5272 5280 5288 5296 5304 5308 5315 5325 5337 5351 5368 5385 5397 5410 5429 5443 5455 5471 5486 5507 5525 5535 5545 5541 5539 5544 5548 5552 5553 5549 5547 5549 5550 5542 5534 5534 5533 5530 5528 5530 5550 5587 5615 5615 5614 5607 5608 5608 5607 5605 5605 5611 5619 5623 5618 5614 5615 5614 5618 5619 5617 5615 5613
5278 5295 5308 5319 5324 5330 5332 5329 5328 5332 5339 5355 5374 5397 5419 5443 5463 5481 5500 5515 5530 5542 5548 5553 5552 5549 5544 5531 5510 5484 5458 5450 5456 5461 5458 5455 5454 5449 5441 5430 5422 5413 5400 5384 5366 5351 5341 5329 5315 5307 5301 5296 5289 5287 5287 5283 5279 5278 5273 5269 5267 5269 5271 5276 5279 5281 5284 5278 5269 5255 5248 5244 5242 5240 5240 5238 5236 5230 5228 5226 5224 5224 5220 5220 5221 5218 5220 5229 5237 5252 5268 5281 5290 5297 5321 5341 5362 5387 5406 5420 5426 5421 5429 5427 5419 5415 5416 5416 5419 5408 5396 5376 5350 5320 5315 5331 5343 5346 5343 5324 5313 5302 5288 5281 5264 5243 5219 5200 5184 5165 5154 5147 5145 5145 5149 5166 5200 5231 5266 5296 5316 5335 5352 5369 5382 5381 5357 5323 5290 5252 5221 5199 5179 5158 5140 5119 5109 5109 5112 5116 5119 5122 5128 5130 5135 5139 5141 5145 5151 5159 5166 5178 5189 5203 5214 5219 5218 5209 5204 5197 5203 5212 5232 5232 5229 5227 5233 5235 5243 5267 5301 5333 5372 5411 5460 5510 5553 5600 5659 5702 5747 5772 5752 5715 5676 5630 5592 5565 5547 5519 5489 5458 5417 5371 5322 5284 5258 5265 5296 5336 5369 5391 5413 5442 5469 5465 5431 5388 5343 5293 5244 5225 5243 5263 5280 5298 5312 5327 5355 5394 5430 5470 5512 5556 5585 5577 5553 5518 5488 5448 5411 5366 5325 5278 5238 5224 5238 5257 5276 5300 5329 5360 5394 5421 5443 5454 5451 5446 5443 5430 5419 5449 5493 5534 5567 5599 5606 5581 5560 5571 5598 5580 5553 5547 5568 5591 5598 5576 5533 5493 5457 5415 5378 5353 5341 5325 5311 5299 5285 5269 5251 5228 5204 5171 5145 5128 5110 5095 5085 5077 5069 5062 5054 5046 5043 5040 5035 5029 5028 5026 5021 5018 5019 5019 5027 5058 5106 5159 5201 5239 5270 5277 5263 5241 5223 5206 5197 5195 5215 5240 5252 5255 5251 5233 5210 5174 5136 5097 5061 5036 5014 4996 4976 4963 4950 4936 4925 4913 4899 4889 4884 4883 4885 4884 4885 4885 4885 4886 4884 4886 4888 4887 4885 4885 4884 4885 4885 4882 4883 4884 4885 4884 4884 4883 4885 4884 4886 4884 4882 4882 4884 4884 4885 4884 4884 4884 4884 4883 4881 4881 4879 4882 4883 4883 4881 4884 4883 4883 4885 4885 4883 4883 4882 4881 4883 4883 4884 4885 4886 4883 4887 4887 4883 4884 4886 4892 4894 4896 4895 4899 4900 4900 4901 4903 4906 4907 4909 4912 4913 4918 4920 4922 4924 4925 4929 4932 4935 4937 4941 4945 4947 4951 4954 4957 4960 4961 4965 4969 4972 4976 4977 4981 4985 4988 4990 4991 4997 5000 5002 5005 5006 5009 5013 5018 5025 5035 5045 5061 5076 5079 5077 5074 5075 5079 5086 5091 5097 5101 5105 5110 5114 5117 5121 5124 5124 5123 5124 5127 5130 5132 5131 5129 5129 5132 5130 5130 5130 5132 5135 5139 5145 5147 5152 5157 5161 5162 5167 5173 5180 5186 5195 5205 5208 5211 5220 5223 5226 5229 5234 5244 5257 5267 5277 5289 5303 5310 5318 5321 5325 5328 5337 5346 5352 5366 5385 5402 5423 5448 5477 5503 5520 5538 5555 5571 5584 5594 5608 5605 5598 5604 5594 5586 5576 5565 5561 5562 5562 5557 5549 5542 5535 5532 5529 5531 5557 5597 5641 5675 5676 5667 5669 5671 5672 5672 5670 5680 5687 5689 5684 5677 5675 5677 5680 5677 5670 5666 5665
5263 5280 5291 5305 5311 5315 5314 5311 5309 5310 5320 5338 5357 5380 5407 5429 5450 5469 5489 5508 5526 5541 5554 5562 5565 5566 5560 5552 5533 5506 5488 5484 5489 5488 5483 5477 5475 5467 5457 5446 5436 5426 5413 5402 5386 5373 5355 5343 5330 5315 5308 5301 5295 5290 5289 5285 5281 5277 5273 5273 5274 5273 5276 5283 5288 5290 5287 5280 5271 5255 5249 5246 5244 5243 5243 5242 5242 5234 5228 5227 5226 5226 5228 5234 5231 5222 5219 5214 5212 5221 5236 5249 5255 5273 5298 5308 5327 5354 5365 5375 5375 5370 5384 5391 5382 5384 5390 5401 5403 5399 5389 5376 5348 5308 5290 5299 5309 5311 5303 5286 5266 5256 5244 5232 5213 5197 5182 5172 5159 5150 5147 5148 5145 5151 5172 5202 5237 5270 5306 5334 5360 5377 5394 5409 5422 5413 5382 5347 5314 5276 5242 5219 5191 5171 5149 5127 5111 5111 5113 5115 5119 5122 5129 5130 5134 5138 5145 5145 5148 5155 5162 5166 5170 5173 5178 5180 5186 5190 5195 5210 5234 5257 5275 5279 5270 5265 5261 5255 5252 5252 5270 5301 5340 5381 5425 5481 5520 5565 5620 5665 5717 5754 5751 5719 5679 5652 5634 5617 5601 5569 5532 5493 5443 5390 5345 5294 5268 5285 5322 5370 5409 5441 5463 5481 5502 5493 5456 5408 5354 5306 5257 5234 5256 5282 5308 5327 5339 5343 5350 5369 5400 5440 5489 5541 5586 5597 5576 5546 5510 5469 5426 5380 5335 5294 5258 5231 5231 5239 5254 5276 5304 5332 5369 5399 5419 5428 5413 5399 5401 5404 5421 5462 5512 5557 5589 5598 5580 5546 5520 5544 5587 5595 5581 5585 5597 5602 5591 5565 5530 5489 5447 5404 5367 5335 5320 5306 5293 5282 5261 5243 5225 5203 5181 5157 5136 5122 5110 5097 5090 5083 5074 5067 5061 5054 5052 5047 5042 5037 5036 5033 5030 5026 5027 5025 5030 5057 5099 5150 5193 5232 5267 5286 5288 5285 5272 5258 5242 5236 5255 5279 5294 5296 5283 5262 5229 5187 5144 5106 5070 5044 5023 5004 4990 4979 4967 4952 4941 4923 4905 4888 4883 4884 4885 4887 4886 4886 4886 4886 4886 4886 4887 4887 4887 4887 4884 4886 4885 4884 4885 4886 4886 4886 4885 4884 4885 4884 4885 4884 4884 4883 4883 4883 4885 4886 4886 4883 4883 4886 4884 4884 4884 4885 4881 4883 4884 4883 4884 4883 4884 4882 4881 4883 4885 4884 4884 4885 4884 4884 4884 4886 4886 4886 4888 4887 4887 4888 4894 4892 4895 4897 4900 4901 4902 4904 4905 4908 4910 4913 4916 4918 4918 4923 4925 4926 4929 4932 4934 4938 4941 4944 4946 4950 4953 4956 4959 4962 4965 4969 4972 4974 4977 4980 4983 4986 4991 4995 4996 5001 5004 5008 5011 5012 5013 5016 5021 5031 5048 5067 5068 5061 5058 5060 5065 5067 5074 5079 5086 5090 5093 5097 5097 5101 5101 5099 5101 5103 5107 5112 5115 5117 5116 5113 5115 5116 5119 5123 5127 5131 5136 5140 5143 5148 5152 5156 5160 5164 5170 5178 5189 5191 5204 5212 5218 5229 5239 5247 5256 5266 5274 5281 5290 5301 5311 5321 5333 5337 5338 5345 5351 5355 5365 5372 5374 5391 5415 5447 5480 5507 5536 5560 5580 5599 5616 5631 5637 5645 5662 5662 5664 5669 5655 5638 5623 5607 5588 5580 5580 5575 5568 5561 5553 5543 5534 5539 5565 5599 5616 5655 5697 5706 5729 5730 5742 5742 5742 5748 5758 5757 5751 5745 5742 5740 5739 5741 5737 5730 5728
5247 5266 5277 5287 5290 5293 5294 5290 5288 5291 5303 5322 5340 5364 5387 5411 5435 5457 5477 5500 5521 5540 5558 5569 5575 5580 5580 5574 5561 5538 5522 5520 5519 5514 5503 5495 5490 5481 5470 5456 5446 5437 5423 5412 5402 5391 5374 5358 5343 5326 5316 5305 5300 5295 5292 5287 5284 5277 5275 5274 5276 5279 5284 5291 5295 5288 5281 5272 5264 5257 5253 5250 5248 5248 5246 5241 5240 5233 5230 5231 5230 5233 5236 5239 5235 5232 5223 5219 5211 5213 5216 5223 5232 5246 5264 5275 5295 5311 5319 5329 5328 5329 5348 5352 5342 5340 5356 5366 5366 5365 5361 5353 5339 5310 5275 5270 5276 5275 5267 5252 5232 5219 5209 5196 5183 5168 5162 5158 5153 5152 5148 5150 5155 5174 5206 5241 5272 5309 5344 5374 5401 5418 5431 5441 5448 5432 5399 5368 5337 5304 5272 5240 5209 5182 5161 5138 5117 5114 5115 5115 5117 5120 5124 5129 5135 5138 5143 5147 5160 5166 5175 5174 5175 5174 5179 5186 5201 5219 5240 5258 5272 5297 5316 5330 5328 5322 5322 5312 5301 5294 5292 5306 5327 5361 5391 5433 5483 5536 5587 5639 5693 5747 5754 5734 5714 5700 5685 5670 5643 5605 5553 5509 5455 5406 5351 5298 5279 5305 5358 5400 5443 5485 5515 5531 5541 5520 5474 5427 5379 5331 5289 5250 5251 5286 5317 5347 5372 5386 5395 5402 5412 5434 5472 5513 5563 5598 5595 5562 5528 5480 5423 5385 5348 5319 5290 5258 5240 5232 5234 5247 5271 5306 5338 5367 5393 5400 5384 5381 5404 5425 5455 5494 5535 5564 5575 5567 5540 5509 5494 5530 5564 5583 5585 5587 5595 5592 5576 5545 5511 5470 5430 5390 5353 5316 5294 5283 5267 5252 5235 5219 5200 5182 5163 5150 5137 5125 5116 5107 5103 5095 5093 5093 5090 5081 5077 5066 5057 5051 5047 5041 5040 5037 5035 5030 5032 5054 5098 5139 5181 5221 5261 5295 5314 5316 5310 5302 5287 5283 5294 5318 5330 5333 5317 5285 5250 5210 5167 5125 5089 5060 5034 5019 5010 5003 4995 4978 4964 4941 4914 4889 4885 4887 4887 4887 4888 4887 4887 4887 4888 4888 4886 4886 4887 4887 4887 4886 4886 4886 4886 4887 4886 4887 4886 4886 4886 4886 4885 4886 4885 4885 4884 4885 4888 4889 4885 4886 4885 4885 4884 4883 4884 4887 4884 4886 4886 4886 4885 4888 4886 4880 4883 4882 4885 4883 4884 4884 4884 4883 4883 4888 4884 4888 4888 4889 4891 4893 4890 4892 4897 4898 4899 4901 4903 4904 4906 4908 4911 4913 4914 4917 4920 4924 4926 4927 4930 4932 4934 4937 4941 4943 4946 4949 4952 4955 4958 4962 4965 4970 4972 4975 4977 4982 4985 4988 4992 4995 4998 5002 5004 5007 5013 5016 5018 5019 5021 5023 5034 5046 5051 5051 5052 5056 5061 5065 5069 5072 5074 5076 5077 5078 5082 5082 5084 5086 5089 5093 5098 5099 5102 5105 5107 5108 5111 5115 5119 5123 5127 5130 5134 5136 5141 5150 5157 5162 5167 5171 5182 5195 5206 5213 5227 5238 5251 5262 5275 5288 5301 5308 5318 5324 5334 5345 5356 5367 5370 5365 5368 5371 5378 5382 5390 5400 5409 5418 5438 5461 5487 5515 5540 5561 5582 5603 5628 5648 5655 5661 5676 5685 5701 5714 5706 5689 5676 5659 5630 5607 5601 5595 5586 5583 5583 5574 5557 5561 5586 5600 5598 5615 5643 5678 5712 5747 5774 5794 5807 5811 5822 5821 5817 5812 5810 5806 5806 5801 5797 5794 5790
5226 5244 5255 5264 5267 5269 5270 5270 5267 5273 5287 5303 5327 5347 5368 5391 5414 5438 5464 5488 5514 5540 5559 5575 5586 5591 5593 5590 5579 5564 5554 5546 5539 5530 5520 5507 5500 5491 5476 5464 5453 5444 5433 5419 5406 5397 5387 5370 5355 5339 5327 5316 5306 5301 5293 5287 5282 5277 5279 5282 5285 5285 5291 5299 5299 5289 5280 5273 5267 5262 5256 5250 5246 5247 5245 5240 5236 5232 5231 5231 5235 5241 5246 5245 5239 5237 5231 5227 5217 5217 5212 5208 5213 5221 5231 5242 5254 5266 5274 5284 5284 5287 5306 5310 5301 5298 5311 5320 5317 5318 5318 5311 5307 5293 5260 5245 5245 5244 5237 5224 5208 5197 5186 5176 5168 5160 5159 5158 5157 5156 5158 5163 5182 5214 5244 5278 5312 5345 5379 5409 5431 5447 5454 5464 5465 5445 5418 5388 5357 5326 5292 5261 5229 5201 5180 5155 5126 5114 5113 5116 5116 5117 5121 5128 5133 5136 5142 5159 5178 5192 5212 5218 5227 5226 5228 5243 5251 5269 5290 5311 5320 5332 5356 5381 5390 5385 5382 5372 5357 5344 5335 5346 5371 5384 5388 5431 5479 5522 5572 5629 5682 5738 5771 5774 5762 5750 5733 5715 5673 5627 5566 5513 5461 5411 5354 5310 5311 5344 5394 5436 5477 5523 5561 5588 5583 5550 5500 5458 5415 5365 5323 5275 5248 5272 5310 5352 5389 5413 5432 5449 5462 5472 5489 5517 5559 5599 5604 5577 5534 5484 5439 5402 5377 5349 5313 5282 5263 5246 5237 5238 5247 5276 5306 5331 5355 5371 5369 5376 5419 5453 5487 5518 5537 5539 5534 5523 5498 5479 5490 5515 5530 5547 5564 5572 5578 5577 5559 5526 5489 5447 5409 5370 5331 5303 5286 5269 5253 5237 5222 5205 5194 5183 5168 5158 5145 5136 5127 5127 5132 5130 5128 5135 5133 5119 5101 5083 5074 5065 5061 5055 5051 5047 5043 5039 5035 5047 5082 5130 5171 5211 5255 5295 5326 5338 5348 5343 5335 5329 5337 5353 5361 5359 5341 5312 5272 5230 5189 5146 5107 5075 5052 5037 5030 5031 5021 5004 4982 4955 4925 4896 4887 4887 4889 4887 4887 4889 4889 4887 4888 4887 4888 4887 4887 4885 4887 4885 4886 4887 4886 4886 4886 4887 4887 4886 4885 4886 4887 4886 4885 4885 4885 4886 4889 4888 4886 4885 4885 4883 4882 4884 4886 4885 4886 4887 4885 4887 4884 4888 4887 4886 4887 4886 4886 4888 4886 4885 4884 4885 4884 4886 4887 4891 4892 4891 4896 4901 4893 4891 4893 4897 4899 4898 4904 4905 4909 4909 4910 4913 4915 4918 4920 4923 4926 4928 4930 4931 4936 4937 4940 4942 4945 4948 4951 4956 4960 4963 4965 4970 4972 4976 4980 4982 4985 4988 4992 4993 4998 4999 4999 5007 5010 5015 5019 5029 5039 5034 5030 5031 5036 5044 5047 5049 5053 5054 5056 5058 5061 5064 5066 5068 5072 5073 5077 5081 5083 5088 5091 5093 5098 5099 5101 5106 5110 5113 5119 5123 5126 5131 5137 5144 5152 5159 5167 5174 5183 5192 5203 5220 5234 5247 5264 5275 5285 5296 5309 5326 5334 5348 5358 5368 5376 5382 5396 5403 5408 5409 5411 5413 5410 5420 5425 5432 5437 5440 5450 5462 5478 5499 5522 5543 5563 5585 5611 5633 5644 5654 5668 5685 5701 5717 5730 5732 5730 5708 5682 5652 5634 5619 5609 5605 5606 5597 5584 5586 5597 5607 5610 5608 5618 5638 5671 5703 5736 5772 5806 5839 5866 5882 5882 5877 5876 5872 5871 5867 5861 5854 5853
5204 5219 5231 5242 5247 5245 5243 5247 5250 5257 5270 5284 5305 5327 5347 5369 5396 5421 5450 5479 5505 5532 5559 5578 5590 5600 5605 5601 5594 5585 5573 5565 5553 5544 5530 5519 5506 5496 5481 5470 5455 5444 5433 5423 5411 5399 5388 5374 5357 5343 5331 5321 5309 5299 5294 5287 5282 5280 5282 5283 5288 5291 5296 5305 5303 5293 5281 5274 5269 5265 5256 5252 5247 5246 5243 5240 5235 5233 5233 5236 5240 5247 5252 5248 5247 5240 5237 5231 5223 5216 5212 5208 5209 5210 5208 5209 5216 5227 5231 5237 5242 5247 5253 5262 5258 5259 5268 5266 5264 5268 5270 5272 5273 5266 5243 5228 5224 5218 5210 5198 5187 5177 5171 5165 5162 5161 5163 5161 5162 5167 5165 5174 5206 5242 5274 5311 5346 5378 5406 5432 5448 5461 5466 5472 5470 5455 5431 5402 5366 5333 5304 5276 5243 5220 5196 5171 5142 5122 5116 5117 5117 5116 5118 5124 5128 5131 5143 5155 5175 5206 5237 5259 5273 5274 5288 5296 5307 5328 5345 5368 5376 5375 5392 5420 5445 5450 5443 5429 5413 5390 5373 5387 5417 5434 5434 5441 5489 5532 5578 5629 5680 5735 5782 5812 5809 5801 5778 5740 5683 5622 5574 5519 5469 5412 5364 5327 5325 5370 5423 5469 5516 5559 5608 5634 5615 5574 5529 5490 5439 5393 5348 5299 5255 5267 5298 5347 5392 5426 5459 5484 5504 5519 5529 5548 5578 5612 5616 5586 5536 5495 5457 5422 5391 5352 5317 5299 5290 5272 5249 5245 5244 5252 5270 5288 5311 5340 5352 5367 5413 5451 5486 5503 5504 5494 5483 5476 5462 5459 5471 5479 5492 5517 5545 5567 5565 5556 5534 5504 5465 5427 5388 5348 5316 5297 5281 5264 5252 5240 5228 5212 5199 5185 5175 5164 5156 5154 5157 5156 5161 5168 5174 5176 5168 5146 5123 5099 5084 5076 5068 5064 5061 5054 5051 5047 5043 5052 5080 5116 5160 5198 5244 5290 5327 5359 5374 5375 5371 5369 5374 5380 5381 5371 5353 5325 5286 5253 5219 5174 5133 5099 5076 5066 5059 5048 5035 5015 4986 4956 4928 4900 4890 4886 4886 4888 4889 4889 4888 4889 4887 4887 4888 4887 4887 4888 4888 4887 4888 4887 4887 4887 4887 4889 4888 4886 4885 4887 4886 4884 4885 4887 4886 4885 4886 4887 4887 4886 4887 4887 4885 4884 4883 4886 4886 4888 4886 4883 4886 4888 4888 4887 4889 4887 4883 4885 4885 4885 4886 4886 4886 4887 4886 4885 4887 4890 4890 4892 4895 4895 4896 4896 4897 4900 4902 4903 4907 4908 4909 4912 4914 4918 4919 4920 4925 4927 4929 4932 4935 4937 4939 4942 4944 4947 4951 4956 4960 4962 4965 4969 4975 4981 4987 4988 4995 4997 4995 4995 5000 5002 5002 5006 5011 5015 5022 5038 5055 5055 5048 5043 5038 5038 5039 5042 5045 5047 5049 5051 5055 5060 5063 5067 5071 5073 5077 5080 5083 5087 5090 5092 5095 5098 5104 5107 5113 5116 5123 5130 5135 5144 5148 5159 5164 5173 5183 5193 5204 5214 5228 5247 5264 5280 5292 5303 5318 5328 5343 5352 5362 5372 5385 5394 5406 5415 5427 5432 5434 5439 5442 5437 5437 5443 5444 5451 5456 5464 5466 5477 5487 5499 5515 5535 5550 5568 5589 5610 5625 5640 5659 5677 5693 5709 5726 5743 5757 5751 5735 5706 5676 5648 5636 5629 5625 5624 5612 5607 5605 5609 5619 5624 5622 5626 5642 5665 5689 5717 5755 5792 5829 5865 5894 5915 5932 5938 5935 5932 5926 5921 5911
5184 5194 5205 5216 5220 5223 5225 5230 5236 5245 5255 5267 5285 5306 5328 5357 5386 5410 5441 5472 5500 5527 5553 5577 5597 5608 5611 5609 5602 5597 5588 5575 5564 5552 5537 5525 5510 5496 5481 5467 5453 5439 5429 5418 5411 5398 5385 5369 5358 5346 5331 5319 5313 5300 5292 5286 5284 5283 5286 5291 5294 5295 5299 5307 5306 5303 5290 5278 5272 5264 5257 5250 5248 5245 5244 5241 5235 5236 5237 5242 5248 5250 5255 5252 5250 5246 5245 5235 5229 5223 5220 5213 5210 5207 5206 5206 5203 5200 5204 5207 5203 5206 5212 5214 5219 5220 5221 5222 5224 5223 5226 5231 5231 5229 5223 5215 5208 5201 5191 5179 5173 5170 5172 5166 5171 5184 5191 5194 5196 5194 5180 5186 5216 5255 5293 5326 5357 5385 5408 5430 5447 5460 5464 5471 5472 5459 5434 5402 5369 5335 5307 5280 5251 5224 5196 5172 5153 5135 5119 5116 5117 5116 5115 5120 5127 5134 5140 5145 5165 5199 5240 5274 5302 5322 5337 5354 5368 5384 5403 5421 5427 5428 5430 5461 5496 5508 5504 5489 5464 5435 5417 5427 5457 5484 5490 5492 5511 5550 5595 5643 5693 5742 5790 5836 5852 5829 5790 5738 5688 5624 5572 5513 5463 5417 5381 5352 5332 5368 5424 5478 5534 5584 5634 5664 5645 5607 5555 5512 5460 5410 5362 5307 5266 5269 5304 5343 5385 5429 5465 5492 5509 5515 5528 5554 5586 5617 5620 5594 5560 5518 5467 5426 5381 5340 5328 5326 5314 5292 5267 5251 5251 5251 5255 5266 5279 5303 5317 5347 5393 5437 5455 5460 5458 5447 5443 5446 5449 5460 5476 5496 5516 5542 5564 5576 5560 5533 5505 5472 5439 5402 5364 5332 5310 5304 5294 5286 5273 5263 5253 5241 5223 5197 5179 5173 5171 5187 5193 5182 5187 5201 5214 5212 5194 5169 5141 5127 5102 5089 5084 5075 5070 5065 5059 5058 5052 5055 5088 5116 5156 5190 5247 5287 5327 5369 5395 5396 5392 5389 5386 5384 5378 5367 5348 5325 5298 5271 5238 5203 5165 5129 5104 5096 5088 5066 5042 5012 4979 4951 4921 4902 4891 4887 4889 4890 4890 4889 4888 4889 4889 4889 4887 4887 4889 4888 4889 4890 4889 4889 4888 4888 4888 4889 4888 4887 4888 4888 4886 4885 4887 4887 4887 4888 4888 4886 4887 4887 4886 4886 4885 4887 4886 4886 4884 4886 4891 4886 4886 4885 4886 4889 4889 4888 4886 4887 4886 4884 4889 4887 4887 4886 4888 4887 4890 4893 4888 4893 4897 4891 4895 4897 4899 4901 4901 4903 4905 4908 4911 4912 4913 4918 4919 4920 4924 4926 4928 4931 4934 4937 4939 4941 4944 4946 4949 4953 4957 4959 4963 4970 4980 4986 4994 4998 5003 5005 5004 5006 5009 5016 5019 5021 5026 5030 5036 5051 5063 5064 5057 5052 5048 5047 5049 5051 5051 5051 5053 5054 5058 5061 5063 5066 5070 5073 5076 5079 5083 5087 5091 5096 5102 5105 5115 5120 5125 5131 5139 5147 5158 5165 5172 5180 5186 5199 5214 5226 5237 5251 5263 5281 5299 5310 5317 5325 5330 5335 5340 5349 5362 5374 5388 5398 5414 5428 5440 5447 5444 5450 5454 5451 5448 5452 5459 5469 5475 5477 5483 5493 5503 5514 5524 5538 5552 5571 5591 5613 5626 5640 5655 5669 5686 5701 5723 5745 5769 5782 5780 5750 5718 5693 5675 5657 5649 5646 5642 5630 5618 5617 5624 5627 5628 5632 5632 5637 5651 5675 5706 5739 5773 5815 5849 5881 5912 5947 5981 5997 5998 5983 5969
5166 5176 5185 5190 5196 5203 5207 5215 5223 5233 5243 5254 5269 5290 5315 5344 5372 5398 5430 5460 5487 5518 5546 5577 5596 5610 5616 5615 5612 5607 5596 5583 5570 5557 5542 5525 5506 5488 5475 5459 5446 5430 5421 5412 5404 5391 5378 5366 5352 5339 5329 5319 5308 5297 5291 5289 5287 5288 5295 5305 5304 5298 5306 5313 5314 5306 5295 5286 5275 5266 5258 5254 5250 5248 5246 5240 5238 5239 5241 5249 5253 5255 5257 5259 5261 5257 5255 5248 5241 5235 5231 5230 5224 5222 5216 5212 5203 5200 5199 5201 5198 5198 5194 5196 5195 5193 5190 5192 5191 5192 5191 5195 5196 5193 5194 5194 5193 5185 5180 5172 5171 5174 5180 5196 5217 5233 5242 5244 5245 5230 5205 5193 5219 5252 5288 5320 5345 5367 5386 5411 5436 5451 5460 5465 5467 5449 5420 5388 5356 5324 5297 5264 5238 5214 5185 5172 5157 5138 5123 5117 5120 5118 5118 5123 5124 5125 5135 5143 5157 5187 5226 5267 5303 5335 5366 5393 5415 5439 5460 5476 5483 5485 5478 5503 5540 5563 5566 5548 5517 5493 5475 5475 5496 5533 5546 5544 5551 5579 5623 5674 5719 5768 5818 5863 5850 5807 5763 5710 5663 5607 5558 5506 5463 5431 5412 5381 5342 5369 5428 5479 5531 5588 5638 5676 5670 5630 5575 5532 5477 5429 5376 5319 5273 5272 5301 5340 5382 5416 5446 5471 5481 5482 5502 5533 5558 5586 5597 5586 5550 5498 5451 5405 5361 5347 5349 5341 5333 5311 5280 5258 5259 5270 5272 5266 5268 5276 5293 5324 5360 5396 5415 5429 5434 5444 5460 5475 5483 5490 5506 5536 5566 5587 5600 5595 5567 5533 5499 5461 5427 5387 5350 5332 5330 5335 5338 5332 5315 5303 5287 5269 5245 5217 5196 5190 5189 5212 5225 5218 5215 5228 5246 5239 5218 5185 5162 5144 5119 5106 5094 5088 5080 5073 5070 5066 5059 5063 5095 5132 5176 5217 5270 5310 5346 5380 5401 5404 5397 5383 5371 5366 5356 5341 5324 5306 5288 5267 5244 5217 5192 5161 5131 5119 5102 5077 5043 5008 4977 4950 4928 4909 4893 4890 4891 4890 4889 4889 4888 4889 4891 4890 4889 4888 4889 4889 4889 4889 4889 4887 4888 4888 4887 4889 4888 4888 4888 4886 4887 4887 4887 4886 4888 4886 4888 4884 4887 4887 4888 4889 4886 4888 4888 4884 4886 4889 4888 4887 4887 4885 4887 4887 4887 4886 4885 4887 4886 4885 4889 4888 4887 4887 4888 4889 4892 4889 4887 4890 4895 4893 4893 4897 4898 4899 4902 4902 4905 4909 4911 4911 4913 4916 4918 4921 4924 4925 4927 4931 4934 4936 4939 4939 4942 4944 4947 4950 4955 4958 4961 4968 4979 4985 4992 4999 5004 5009 5008 5011 5014 5020 5026 5027 5031 5037 5042 5055 5067 5075 5072 5064 5056 5054 5052 5057 5058 5061 5063 5063 5067 5071 5071 5073 5075 5079 5082 5085 5090 5096 5102 5112 5116 5124 5133 5143 5149 5160 5169 5177 5183 5190 5199 5212 5223 5237 5249 5262 5270 5272 5277 5289 5302 5303 5306 5308 5311 5321 5330 5343 5355 5368 5381 5394 5406 5421 5434 5443 5444 5448 5451 5454 5461 5468 5479 5490 5497 5498 5503 5512 5518 5528 5539 5551 5565 5583 5609 5634 5650 5658 5663 5675 5689 5711 5733 5755 5779 5796 5807 5797 5769 5745 5725 5710 5693 5678 5671 5663 5650 5636 5635 5635 5632 5634 5632 5631 5634 5644 5677 5701 5732 5763 5800 5831 5864 5904 5942 5981 6021 6041 6034
5158 5164 5170 5177 5184 5192 5198 5209 5219 5228 5236 5250 5262 5279 5301 5328 5356 5382 5411 5440 5474 5506 5540 5570 5591 5605 5617 5619 5618 5611 5603 5590 5576 5560 5543 5522 5497 5474 5455 5443 5433 5420 5411 5402 5392 5382 5369 5353 5345 5333 5324 5313 5301 5298 5295 5293 5293 5300 5310 5319 5311 5307 5311 5317 5320 5313 5305 5291 5280 5267 5259 5257 5250 5248 5244 5239 5241 5242 5247 5257 5260 5260 5262 5271 5270 5267 5268 5268 5265 5264 5266 5264 5259 5251 5247 5239 5231 5221 5208 5204 5200 5201 5200 5202 5199 5190 5188 5189 5188 5185 5182 5181 5181 5182 5182 5181 5178 5174 5171 5171 5176 5195 5218 5244 5270 5287 5293 5299 5295 5268 5240 5206 5213 5239 5267 5295 5318 5340 5370 5399 5422 5443 5458 5464 5459 5436 5399 5366 5334 5302 5276 5250 5228 5207 5196 5189 5178 5154 5127 5118 5120 5120 5118 5122 5126 5128 5136 5145 5158 5178 5214 5254 5295 5338 5376 5414 5445 5474 5502 5522 5537 5539 5528 5545 5580 5618 5620 5602 5562 5543 5532 5530 5544 5580 5602 5600 5602 5620 5658 5697 5747 5796 5838 5871 5838 5794 5744 5694 5649 5606 5565 5524 5483 5464 5445 5403 5363 5373 5420 5470 5519 5575 5631 5681 5688 5648 5596 5552 5493 5445 5390 5335 5285 5274 5290 5325 5359 5387 5411 5428 5438 5459 5485 5502 5515 5534 5552 5553 5517 5471 5425 5380 5368 5370 5366 5356 5347 5323 5288 5263 5268 5294 5312 5309 5300 5296 5295 5309 5333 5367 5408 5447 5469 5487 5508 5523 5528 5529 5545 5575 5608 5634 5636 5619 5586 5548 5508 5464 5424 5384 5351 5351 5364 5377 5384 5382 5374 5351 5324 5299 5271 5242 5216 5209 5208 5227 5242 5244 5246 5253 5265 5257 5230 5203 5179 5156 5137 5120 5106 5095 5091 5082 5079 5072 5068 5079 5117 5164 5203 5235 5281 5328 5366 5391 5400 5396 5380 5360 5344 5330 5316 5300 5285 5269 5254 5237 5216 5199 5185 5165 5144 5134 5110 5082 5050 5019 4990 4970 4947 4919 4897 4889 4891 4889 4890 4891 4890 4890 4891 4889 4890 4889 4890 4890 4889 4889 4890 4889 4889 4889 4889 4889 4888 4888 4889 4887 4888 4888 4888 4887 4889 4888 4886 4886 4887 4890 4889 4890 4888 4889 4888 4888 4887 4886 4884 4887 4888 4885 4887 4885 4886 4886 4887 4888 4887 4887 4887 4887 4888 4890 4888 4888 4889 4892 4891 4891 4890 4894 4895 4897 4896 4900 4901 4902 4905 4907 4909 4911 4912 4915 4915 4918 4922 4923 4925 4929 4933 4934 4938 4939 4941 4944 4946 4949 4952 4954 4957 4965 4972 4979 4982 4989 4996 5002 5006 5010 5015 5021 5025 5029 5033 5039 5046 5051 5059 5072 5082 5085 5080 5074 5072 5069 5072 5077 5077 5078 5081 5083 5089 5094 5091 5093 5101 5110 5118 5127 5135 5143 5150 5158 5165 5174 5181 5190 5200 5209 5211 5218 5228 5239 5246 5256 5265 5270 5269 5268 5267 5272 5281 5282 5286 5292 5296 5309 5322 5334 5350 5363 5374 5387 5400 5412 5425 5435 5438 5443 5449 5457 5467 5478 5490 5503 5511 5514 5516 5524 5533 5538 5546 5563 5577 5597 5620 5645 5670 5681 5684 5693 5706 5728 5751 5774 5795 5816 5832 5831 5816 5800 5787 5770 5754 5735 5720 5709 5695 5674 5661 5652 5644 5642 5644 5641 5648 5655 5671 5692 5709 5733 5756 5784 5815 5857 5897 5937 5984 6030 6069
5156 5162 5167 5175 5182 5187 5197 5207 5217 5228 5236 5250 5266 5283 5305 5329 5356 5375 5397 5428 5457 5489 5526 5557 5581 5601 5617 5624 5625 5619 5608 5596 5582 5566 5544 5521 5492 5462 5436 5419 5410 5404 5395 5386 5379 5374 5357 5348 5338 5329 5317 5307 5299 5299 5298 5299 5307 5321 5329 5333 5319 5308 5311 5319 5324 5320 5312 5299 5281 5271 5264 5258 5253 5250 5245 5241 5243 5247 5257 5264 5263 5269 5272 5281 5284 5290 5290 5294 5301 5306 5312 5308 5301 5291 5286 5289 5278 5263 5247 5232 5224 5212 5206 5207 5210 5206 5199 5193 5193 5188 5189 5185 5181 5184 5182 5178 5178 5181 5185 5186 5203 5238 5267 5297 5322 5339 5347 5350 5336 5306 5272 5234 5222 5237 5259 5289 5304 5330 5359 5386 5412 5437 5451 5455 5448 5423 5385 5358 5329 5308 5274 5247 5235 5230 5228 5223 5207 5182 5142 5120 5120 5120 5120 5124 5128 5129 5136 5147 5156 5175 5208 5247 5290 5329 5370 5412 5452 5489 5528 5562 5584 5593 5592 5595 5623 5660 5666 5643 5621 5603 5591 5587 5595 5626 5654 5662 5645 5649 5664 5700 5744 5791 5834 5872 5855 5805 5763 5721 5680 5633 5593 5546 5514 5503 5473 5427 5378 5384 5433 5480 5524 5571 5624 5671 5695 5658 5611 5556 5510 5457 5403 5346 5296 5276 5284 5306 5326 5346 5369 5389 5417 5450 5464 5462 5465 5481 5504 5520 5495 5445 5405 5396 5404 5395 5385 5370 5352 5322 5290 5268 5279 5306 5328 5345 5357 5350 5343 5347 5356 5385 5428 5468 5509 5535 5558 5570 5566 5571 5586 5613 5649 5675 5669 5641 5603 5557 5513 5468 5426 5387 5371 5383 5404 5424 5435 5438 5427 5399 5366 5332 5297 5263 5235 5223 5225 5244 5271 5284 5288 5284 5284 5267 5239 5215 5190 5168 5148 5128 5120 5107 5104 5096 5089 5083 5079 5095 5139 5187 5235 5270 5306 5343 5377 5399 5401 5385 5360 5332 5311 5292 5273 5252 5237 5225 5209 5189 5167 5156 5145 5134 5129 5125 5113 5088 5058 5028 4998 4978 4958 4928 4902 4894 4892 4889 4891 4892 4891 4890 4890 4890 4890 4889 4888 4890 4889 4889 4890 4890 4890 4889 4889 4888 4890 4890 4892 4890 4890 4889 4890 4890 4890 4887 4888 4888 4890 4888 4890 4889 4889 4886 4888 4889 4888 4886 4884 4885 4887 4887 4886 4888 4889 4889 4886 4888 4888 4888 4890 4887 4888 4889 4888 4888 4891 4889 4890 4891 4890 4892 4890 4896 4897 4901 4899 4900 4905 4905 4909 4911 4910 4914 4915 4916 4921 4922 4923 4928 4932 4932 4934 4936 4939 4942 4944 4948 4949 4950 4954 4961 4965 4972 4978 4981 4988 4993 5001 5007 5012 5019 5022 5025 5029 5036 5043 5046 5052 5059 5069 5078 5087 5095 5095 5093 5094 5096 5098 5101 5099 5101 5103 5105 5104 5108 5114 5124 5138 5147 5154 5164 5174 5179 5187 5190 5191 5202 5212 5223 5227 5230 5235 5240 5242 5247 5251 5252 5245 5246 5250 5253 5264 5267 5271 5279 5289 5303 5312 5325 5340 5354 5367 5381 5393 5405 5416 5425 5432 5439 5448 5459 5469 5483 5496 5511 5519 5524 5532 5540 5548 5554 5561 5573 5590 5609 5633 5661 5686 5703 5713 5721 5725 5739 5761 5787 5808 5829 5851 5867 5872 5864 5851 5827 5810 5795 5774 5756 5744 5729 5717 5697 5675 5666 5661 5662 5667 5669 5674 5697 5729 5741 5747 5761 5781 5811 5858 5896 5941 5989 6035
5160 5162 5168 5173 5179 5186 5206 5220 5231 5238 5254 5275 5293 5317 5334 5360 5386 5405 5416 5429 5449 5478 5509 5547 5573 5599 5619 5628 5632 5627 5617 5605 5589 5570 5546 5518 5485 5456 5429 5413 5399 5385 5377 5370 5365 5355 5347 5339 5330 5322 5314 5305 5303 5304 5309 5320 5335 5344 5350 5344 5327 5313 5315 5326 5331 5329 5319 5307 5288 5270 5265 5261 5258 5250 5247 5245 5246 5252 5264 5270 5275 5281 5289 5296 5303 5308 5316 5329 5342 5353 5359 5356 5346 5333 5329 5330 5323 5304 5281 5266 5246 5229 5222 5223 5231 5240 5232 5224 5220 5216 5218 5210 5201 5196 5193 5191 5193 5196 5200 5205 5233 5280 5311 5344 5374 5395 5397 5394 5374 5342 5305 5268 5239 5243 5264 5297 5319 5343 5368 5395 5421 5436 5452 5457 5452 5433 5408 5383 5364 5329 5289 5266 5272 5271 5272 5273 5246 5207 5161 5125 5121 5124 5124 5125 5132 5134 5140 5147 5158 5178 5203 5242 5281 5323 5366 5406 5447 5486 5528 5568 5599 5621 5632 5646 5662 5685 5694 5682 5666 5656 5653 5655 5658 5672 5687 5677 5651 5637 5651 5690 5733 5777 5822 5865 5871 5833 5791 5749 5706 5652 5606 5576 5553 5533 5492 5445 5399 5411 5449 5499 5540 5595 5641 5689 5706 5673 5622 5560 5511 5459 5408 5352 5302 5282 5290 5306 5312 5323 5341 5371 5401 5424 5431 5429 5448 5465 5492 5507 5477 5437 5424 5436 5432 5413 5395 5382 5359 5330 5295 5273 5287 5314 5340 5362 5385 5400 5404 5403 5404 5414 5450 5489 5532 5570 5603 5621 5622 5626 5639 5660 5692 5710 5695 5657 5612 5569 5517 5472 5429 5392 5393 5413 5434 5457 5477 5484 5466 5438 5400 5362 5325 5291 5259 5238 5241 5264 5289 5309 5320 5321 5306 5277 5252 5227 5203 5182 5163 5144 5132 5119 5113 5107 5096 5092 5093 5117 5162 5215 5255 5298 5339 5371 5400 5414 5405 5380 5346 5308 5278 5254 5232 5212 5195 5179 5162 5141 5119 5107 5102 5098 5098 5100 5095 5074 5051 5024 4992 4974 4955 4928 4905 4899 4897 4891 4893 4892 4890 4890 4891 4891 4890 4891 4890 4889 4890 4890 4890 4892 4890 4890 4890 4891 4891 4890 4891 4891 4890 4890 4890 4890 4890 4888 4889 4889 4888 4893 4891 4889 4886 4887 4890 4891 4886 4885 4886 4887 4889 4887 4888 4891 4890 4888 4887 4888 4888 4889 4889 4888 4889 4888 4889 4889 4892 4892 4893 4889 4889 4894 4890 4894 4896 4897 4898 4899 4901 4903 4906 4912 4909 4912 4914 4916 4919 4922 4924 4927 4929 4932 4932 4934 4936 4939 4942 4942 4944 4948 4951 4955 4961 4969 4974 4980 4983 4987 4992 5000 5002 5008 5010 5015 5021 5029 5035 5039 5046 5052 5059 5066 5076 5086 5094 5098 5100 5106 5113 5119 5122 5121 5120 5119 5118 5120 5128 5137 5146 5153 5157 5167 5177 5183 5190 5192 5195 5202 5206 5211 5214 5214 5220 5223 5228 5235 5238 5238 5232 5231 5235 5242 5250 5254 5262 5271 5280 5294 5305 5318 5331 5346 5360 5371 5385 5397 5409 5418 5428 5437 5448 5462 5471 5486 5502 5517 5527 5535 5549 5562 5572 5581 5584 5592 5607 5625 5650 5677 5704 5724 5739 5749 5753 5759 5775 5799 5818 5841 5864 5886 5906 5915 5908 5885 5872 5854 5829 5809 5797 5783 5768 5750 5725 5704 5688 5679 5681 5686 5692 5711 5730 5747 5752 5765 5772 5787 5819 5859 5896 5949 6004
5174 5174 5174 5177 5183 5197 5220 5237 5252 5261 5271 5296 5322 5343 5366 5395 5421 5444 5454 5460 5470 5492 5517 5550 5580 5606 5627 5637 5641 5638 5626 5613 5594 5573 5551 5522 5495 5471 5454 5437 5419 5396 5380 5366 5359 5348 5340 5331 5326 5318 5311 5306 5305 5316 5334 5348 5358 5363 5360 5355 5340 5319 5321 5332 5336 5336 5330 5321 5296 5275 5268 5263 5260 5253 5248 5248 5250 5260 5272 5281 5291 5308 5321 5327 5327 5335 5350 5368 5386 5401 5406 5403 5391 5380 5372 5371 5362 5341 5319 5296 5265 5246 5239 5244 5266 5280 5276 5270 5266 5257 5246 5248 5247 5241 5237 5232 5230 5224 5222 5220 5242 5297 5340 5380 5408 5427 5433 5427 5408 5370 5332 5294 5262 5252 5266 5310 5341 5372 5390 5413 5430 5445 5457 5463 5466 5456 5442 5413 5369 5334 5308 5312 5322 5321 5319 5302 5268 5227 5177 5137 5125 5123 5124 5128 5132 5136 5147 5151 5161 5176 5204 5245 5276 5317 5360 5400 5444 5485 5525 5560 5594 5618 5636 5650 5661 5670 5675 5678 5678 5678 5679 5680 5682 5682 5674 5654 5626 5608 5638 5673 5708 5749 5796 5843 5868 5846 5807 5764 5716 5669 5634 5604 5581 5554 5506 5447 5416 5439 5485 5522 5558 5605 5659 5712 5723 5683 5612 5569 5525 5465 5415 5360 5311 5290 5303 5335 5348 5354 5356 5361 5384 5400 5418 5446 5475 5504 5523 5515 5474 5450 5465 5469 5454 5432 5409 5392 5364 5336 5300 5284 5293 5318 5343 5371 5399 5422 5446 5458 5443 5448 5485 5525 5568 5606 5644 5668 5671 5680 5693 5710 5734 5736 5709 5667 5618 5571 5523 5475 5431 5411 5421 5439 5457 5482 5506 5519 5501 5470 5430 5392 5354 5314 5282 5259 5260 5280 5310 5333 5349 5353 5335 5295 5266 5249 5227 5205 5186 5167 5146 5132 5120 5119 5107 5102 5102 5138 5185 5236 5281 5328 5367 5402 5424 5434 5417 5387 5352 5318 5277 5240 5209 5183 5157 5137 5118 5101 5081 5068 5061 5057 5061 5064 5058 5044 5028 5003 4980 4961 4944 4925 4910 4905 4899 4892 4892 4893 4893 4893 4891 4892 4891 4891 4890 4890 4891 4891 4892 4892 4892 4891 4891 4893 4894 4892 4892 4892 4891 4890 4890 4892 4889 4888 4891 4891 4890 4890 4894 4892 4889 4890 4892 4893 4890 4885 4888 4890 4890 4889 4889 4891 4891 4889 4893 4889 4889 4888 4888 4890 4888 4889 4890 4889 4892 4892 4893 4890 4893 4893 4895 4897 4893 4896 4898 4902 4902 4903 4905 4911 4912 4913 4913 4916 4918 4919 4923 4925 4925 4927 4929 4932 4934 4936 4937 4939 4943 4944 4947 4950 4957 4964 4969 4974 4976 4982 4987 4993 4995 4998 5001 5008 5014 5020 5026 5032 5040 5046 5056 5062 5067 5071 5076 5079 5084 5092 5099 5105 5112 5122 5124 5126 5128 5127 5129 5135 5137 5140 5140 5147 5156 5162 5168 5173 5177 5184 5190 5194 5195 5197 5204 5210 5215 5223 5221 5224 5222 5222 5226 5230 5233 5242 5250 5263 5272 5284 5294 5308 5321 5335 5351 5365 5378 5392 5404 5413 5426 5435 5446 5462 5476 5490 5509 5526 5535 5548 5562 5579 5596 5607 5614 5618 5632 5649 5670 5697 5723 5744 5761 5774 5780 5787 5801 5817 5835 5855 5877 5899 5921 5944 5957 5958 5939 5910 5889 5872 5858 5837 5816 5783 5763 5753 5746 5721 5702 5696 5710 5731 5737 5758 5767 5771 5780 5785 5799 5828 5868 5922 5970
5200 5192 5181 5182 5193 5206 5226 5247 5264 5278 5294 5319 5342 5367 5396 5424 5452 5477 5493 5501 5507 5519 5538 5564 5594 5624 5645 5656 5653 5646 5635 5620 5601 5584 5563 5538 5516 5498 5482 5462 5442 5424 5404 5388 5369 5354 5346 5337 5327 5319 5313 5314 5326 5349 5373 5382 5387 5387 5377 5364 5347 5324 5322 5333 5342 5344 5344 5334 5300 5277 5271 5266 5263 5255 5252 5250 5257 5273 5289 5307 5326 5344 5359 5362 5353 5364 5389 5409 5431 5445 5449 5447 5434 5421 5414 5410 5395 5371 5344 5311 5280 5260 5256 5271 5295 5310 5316 5314 5310 5295 5285 5293 5299 5295 5287 5283 5268 5249 5242 5242 5250 5285 5328 5370 5404 5425 5436 5441 5424 5386 5350 5315 5281 5268 5276 5310 5352 5385 5407 5429 5443 5457 5469 5476 5476 5469 5452 5419 5375 5343 5343 5359 5365 5366 5352 5325 5284 5235 5195 5155 5127 5124 5128 5128 5130 5138 5148 5155 5170 5179 5205 5239 5279 5319 5360 5397 5445 5486 5524 5559 5586 5604 5616 5620 5625 5627 5633 5638 5640 5644 5646 5646 5649 5644 5633 5610 5584 5582 5612 5646 5678 5723 5769 5819 5862 5849 5812 5772 5730 5690 5647 5606 5574 5546 5502 5459 5439 5467 5508 5547 5589 5625 5673 5723 5726 5687 5628 5577 5523 5475 5413 5365 5314 5296 5318 5355 5383 5399 5405 5405 5412 5428 5452 5482 5509 5543 5559 5538 5495 5493 5503 5497 5473 5449 5424 5401 5371 5341 5315 5299 5299 5325 5351 5378 5405 5434 5461 5483 5482 5483 5513 5557 5610 5649 5688 5716 5728 5735 5741 5756 5772 5756 5716 5673 5622 5577 5525 5481 5438 5431 5448 5469 5485 5509 5538 5549 5534 5496 5459 5419 5377 5340 5304 5278 5273 5291 5327 5358 5389 5388 5360 5326 5295 5272 5253 5229 5207 5183 5164 5147 5136 5131 5121 5112 5118 5161 5206 5256 5301 5350 5389 5429 5453 5448 5425 5393 5354 5320 5280 5242 5206 5173 5143 5122 5103 5084 5067 5056 5041 5034 5030 5025 5019 5008 4996 4978 4960 4946 4932 4923 4915 4908 4902 4893 4892 4894 4893 4894 4893 4892 4891 4891 4892 4892 4893 4890 4892 4891 4892 4893 4894 4894 4892 4892 4892 4892 4891 4892 4890 4891 4891 4892 4892 4890 4894 4893 4893 4888 4891 4891 4888 4890 4890 4889 4889 4891 4890 4890 4887 4889 4889 4889 4890 4889 4890 4891 4889 4891 4891 4888 4890 4892 4893 4891 4891 4892 4896 4893 4894 4893 4893 4895 4895 4897 4895 4901 4907 4910 4910 4911 4914 4917 4916 4918 4922 4922 4926 4926 4926 4928 4929 4930 4934 4937 4938 4939 4943 4946 4952 4960 4964 4967 4970 4976 4981 4982 4989 4992 4997 5002 5006 5013 5017 5025 5031 5036 5043 5047 5054 5060 5061 5065 5072 5078 5081 5083 5089 5095 5102 5108 5107 5105 5107 5110 5115 5116 5119 5129 5137 5142 5145 5151 5156 5164 5170 5175 5181 5184 5192 5199 5205 5207 5211 5211 5210 5211 5214 5219 5223 5235 5245 5251 5262 5276 5285 5300 5314 5327 5343 5357 5374 5387 5402 5412 5427 5438 5449 5465 5480 5495 5515 5529 5543 5562 5577 5590 5613 5625 5642 5651 5662 5680 5700 5723 5743 5766 5788 5804 5813 5818 5827 5842 5858 5878 5897 5919 5944 5966 5985 5999 5999 5976 5954 5939 5923 5901 5866 5834 5811 5799 5796 5783 5755 5734 5721 5738 5758 5766 5783 5788 5792 5797 5797 5807 5836 5885 5932
5219 5211 5201 5195 5201 5212 5227 5250 5273 5296 5317 5344 5369 5393 5421 5450 5482 5508 5525 5539 5547 5558 5573 5589 5612 5642 5663 5673 5665 5656 5643 5626 5610 5590 5574 5556 5538 5521 5502 5483 5466 5447 5429 5407 5387 5364 5352 5341 5331 5320 5318 5331 5354 5381 5402 5410 5410 5401 5391 5372 5351 5332 5327 5334 5347 5353 5353 5336 5302 5279 5271 5266 5262 5256 5253 5255 5265 5286 5311 5336 5364 5388 5399 5391 5388 5401 5426 5446 5468 5483 5487 5481 5469 5456 5444 5433 5412 5385 5352 5319 5290 5272 5272 5294 5315 5333 5342 5348 5345 5335 5327 5339 5346 5342 5332 5319 5298 5285 5279 5268 5260 5281 5314 5351 5385 5412 5426 5436 5412 5380 5345 5318 5305 5287 5284 5313 5349 5377 5410 5438 5461 5475 5484 5490 5485 5475 5453 5412 5386 5386 5392 5393 5401 5395 5376 5345 5305 5266 5219 5170 5130 5122 5123 5126 5133 5142 5151 5161 5169 5179 5200 5232 5272 5313 5353 5398 5440 5480 5520 5549 5569 5579 5581 5580 5575 5574 5577 5582 5587 5590 5594 5594 5594 5591 5580 5561 5553 5570 5609 5651 5695 5733 5772 5816 5861 5861 5825 5787 5742 5694 5647 5606 5573 5545 5510 5475 5465 5501 5538 5575 5617 5662 5713 5745 5731 5689 5635 5586 5528 5477 5420 5369 5323 5303 5323 5366 5405 5431 5449 5457 5468 5479 5503 5526 5550 5582 5587 5566 5528 5526 5536 5524 5492 5462 5435 5406 5379 5344 5324 5315 5309 5329 5358 5386 5412 5439 5469 5491 5510 5518 5538 5579 5633 5684 5731 5760 5779 5788 5798 5795 5781 5748 5707 5667 5620 5571 5525 5479 5455 5464 5481 5500 5520 5546 5568 5578 5561 5523 5481 5444 5402 5365 5331 5304 5290 5306 5345 5379 5413 5416 5395 5366 5337 5299 5276 5247 5223 5198 5176 5163 5152 5142 5137 5129 5135 5181 5227 5277 5327 5370 5415 5451 5472 5460 5431 5392 5353 5317 5276 5242 5203 5172 5146 5123 5102 5086 5070 5051 5037 5023 5012 5004 4995 4985 4975 4958 4947 4941 4934 4925 4918 4911 4903 4897 4893 4894 4893 4894 4894 4892 4891 4893 4893 4893 4893 4891 4893 4893 4892 4893 4893 4894 4893 4892 4893 4892 4891 4893 4892 4893 4893 4891 4893 4892 4893 4892 4891 4890 4893 4889 4888 4891 4888 4887 4889 4890 4891 4892 4890 4890 4890 4889 4890 4892 4892 4891 4890 4891 4894 4890 4890 4890 4892 4893 4893 4893 4893 4894 4894 4893 4898 4895 4897 4898 4897 4903 4904 4903 4906 4910 4912 4912 4913 4918 4918 4921 4922 4923 4924 4926 4928 4930 4932 4933 4934 4935 4939 4942 4948 4954 4958 4962 4969 4974 4976 4979 4985 4988 4991 4997 5001 5005 5007 5011 5015 5021 5028 5030 5037 5050 5052 5054 5059 5060 5064 5065 5071 5078 5082 5084 5082 5082 5088 5093 5096 5101 5106 5116 5122 5124 5131 5136 5143 5148 5155 5167 5173 5175 5181 5187 5196 5197 5199 5200 5198 5202 5205 5211 5221 5231 5240 5248 5260 5270 5284 5298 5313 5327 5341 5351 5369 5382 5397 5408 5424 5440 5451 5468 5483 5502 5520 5538 5555 5573 5587 5605 5627 5644 5661 5677 5692 5709 5727 5746 5764 5786 5814 5826 5836 5846 5855 5872 5889 5909 5927 5949 5971 5989 6005 6024 6037 6035 6029 6011 5983 5951 5917 5889 5864 5856 5848 5838 5817 5788 5758 5749 5771 5783 5792 5799 5801 5809 5811 5815 5825 5855 5905
5236 5229 5219 5211 5216 5218 5229 5245 5273 5300 5328 5356 5383 5414 5439 5469 5504 5534 5554 5569 5578 5593 5608 5624 5642 5661 5679 5685 5674 5664 5651 5634 5620 5601 5587 5572 5555 5536 5515 5495 5480 5460 5438 5416 5404 5369 5356 5344 5332 5324 5328 5348 5377 5400 5418 5427 5426 5413 5396 5381 5360 5345 5335 5334 5346 5360 5358 5336 5300 5280 5271 5266 5261 5257 5255 5260 5276 5298 5334 5366 5395 5421 5431 5426 5428 5441 5461 5484 5502 5515 5516 5508 5495 5480 5462 5440 5415 5384 5354 5322 5296 5288 5298 5319 5339 5356 5372 5381 5385 5380 5374 5386 5388 5392 5378 5352 5332 5328 5323 5306 5288 5289 5312 5341 5381 5411 5431 5432 5420 5390 5358 5342 5341 5325 5307 5333 5362 5385 5415 5445 5474 5491 5500 5501 5498 5482 5456 5424 5422 5431 5434 5437 5432 5413 5381 5341 5300 5258 5215 5168 5133 5125 5123 5126 5131 5139 5153 5161 5172 5183 5196 5226 5264 5307 5350 5392 5431 5470 5500 5520 5532 5536 5536 5529 5522 5516 5515 5519 5526 5537 5537 5536 5537 5534 5528 5528 5553 5591 5633 5675 5714 5761 5805 5845 5884 5868 5830 5791 5739 5693 5652 5631 5612 5581 5540 5491 5499 5538 5583 5623 5658 5697 5747 5776 5745 5697 5637 5594 5537 5487 5427 5375 5327 5305 5331 5368 5406 5441 5474 5494 5514 5533 5551 5573 5595 5621 5632 5608 5582 5571 5566 5546 5512 5481 5447 5412 5375 5348 5333 5326 5322 5342 5366 5391 5421 5450 5481 5502 5526 5548 5569 5601 5644 5699 5754 5801 5833 5834 5825 5802 5768 5732 5695 5655 5607 5560 5520 5485 5481 5499 5517 5537 5563 5586 5602 5606 5586 5546 5510 5470 5426 5390 5355 5326 5305 5317 5362 5403 5438 5447 5429 5401 5369 5329 5296 5262 5234 5212 5193 5177 5167 5155 5146 5141 5152 5201 5247 5298 5345 5398 5440 5472 5485 5466 5431 5392 5345 5304 5269 5232 5202 5180 5159 5133 5112 5094 5075 5057 5041 5024 5009 4997 4986 4973 4966 4956 4949 4944 4934 4926 4919 4912 4905 4897 4893 4893 4894 4893 4894 4893 4895 4894 4894 4894 4894 4894 4892 4894 4893 4895 4892 4893 4894 4892 4891 4892 4894 4895 4893 4893 4894 4892 4891 4892 4892 4893 4893 4894 4893 4890 4889 4890 4892 4892 4890 4890 4893 4891 4893 4892 4892 4893 4891 4892 4892 4890 4892 4894 4893 4893 4891 4891 4891 4893 4893 4893 4895 4892 4893 4892 4897 4895 4898 4898 4899 4902 4904 4902 4904 4907 4908 4911 4912 4914 4918 4919 4919 4919 4919 4922 4924 4926 4927 4929 4931 4933 4937 4942 4946 4948 4953 4956 4967 4969 4972 4976 4979 4983 4989 4993 4997 4996 5001 5002 5008 5012 5014 5020 5027 5035 5038 5040 5046 5047 5048 5051 5057 5062 5063 5065 5067 5070 5075 5081 5086 5090 5095 5102 5112 5117 5121 5125 5131 5141 5151 5162 5167 5167 5169 5177 5185 5187 5188 5187 5188 5195 5202 5211 5220 5229 5239 5248 5259 5271 5283 5298 5312 5325 5341 5351 5364 5381 5394 5409 5426 5440 5456 5474 5494 5513 5532 5551 5568 5584 5600 5621 5641 5658 5673 5693 5712 5729 5748 5764 5785 5810 5826 5840 5854 5864 5875 5889 5906 5924 5947 5967 5986 6006 6022 6039 6062 6076 6081 6074 6044 6009 5974 5943 5922 5918 5913 5898 5869 5841 5806 5777 5779 5795 5801 5807 5812 5813 5819 5828 5834 5842 5880
5245 5243 5236 5235 5233 5233 5239 5251 5272 5299 5327 5355 5382 5418 5449 5481 5515 5543 5567 5583 5601 5614 5631 5645 5660 5677 5688 5690 5682 5670 5656 5641 5627 5609 5596 5582 5561 5545 5523 5503 5485 5467 5444 5426 5406 5380 5360 5346 5332 5329 5341 5364 5390 5413 5430 5439 5443 5433 5413 5400 5380 5355 5346 5340 5349 5364 5353 5324 5293 5275 5271 5265 5260 5258 5258 5270 5288 5317 5353 5389 5417 5443 5460 5465 5467 5479 5499 5520 5536 5542 5538 5528 5514 5488 5470 5446 5414 5386 5353 5326 5309 5307 5320 5342 5362 5380 5398 5415 5426 5427 5425 5431 5435 5426 5412 5385 5374 5368 5358 5337 5315 5313 5323 5352 5392 5424 5447 5454 5443 5416 5390 5383 5383 5358 5335 5350 5385 5418 5440 5466 5490 5506 5515 5516 5511 5491 5468 5459 5467 5477 5476 5474 5451 5420 5379 5332 5285 5240 5206 5175 5141 5126 5125 5130 5137 5142 5153 5167 5176 5187 5202 5221 5257 5300 5338 5379 5411 5443 5459 5468 5475 5481 5479 5468 5458 5449 5452 5455 5465 5474 5482 5490 5494 5508 5531 5557 5586 5622 5665 5706 5750 5795 5842 5879 5893 5865 5823 5783 5739 5706 5678 5658 5627 5587 5549 5509 5525 5564 5611 5657 5697 5740 5780 5796 5762 5707 5651 5597 5553 5495 5439 5395 5347 5317 5328 5361 5405 5436 5469 5499 5530 5562 5588 5613 5643 5666 5672 5653 5631 5619 5604 5570 5532 5500 5468 5428 5391 5367 5347 5332 5328 5349 5373 5399 5432 5467 5499 5528 5557 5581 5603 5636 5671 5711 5766 5818 5859 5857 5829 5797 5759 5722 5680 5635 5591 5556 5519 5497 5508 5528 5553 5583 5606 5628 5637 5634 5608 5572 5534 5496 5451 5417 5382 5352 5328 5327 5364 5412 5451 5474 5466 5436 5388 5352 5316 5277 5247 5224 5207 5193 5182 5173 5158 5150 5174 5215 5263 5314 5360 5414 5453 5491 5494 5472 5438 5401 5354 5318 5287 5253 5229 5208 5184 5159 5135 5113 5088 5067 5050 5035 5020 5005 4989 4975 4966 4958 4952 4943 4937 4927 4920 4914 4905 4897 4894 4894 4894 4893 4894 4895 4895 4895 4894 4894 4895 4895 4893 4895 4894 4895 4893 4894 4893 4892 4893 4893 4896 4897 4895 4892 4893 4895 4893 4894 4894 4892 4893 4895 4893 4889 4888 4889 4891 4891 4890 4893 4896 4894 4894 4894 4892 4890 4893 4892 4892 4892 4892 4893 4893 4892 4893 4893 4893 4894 4890 4892 4896 4895 4896 4896 4895 4897 4898 4899 4900 4901 4901 4902 4901 4908 4910 4908 4913 4913 4917 4917 4917 4919 4918 4920 4922 4924 4925 4925 4928 4933 4937 4939 4944 4946 4950 4953 4958 4963 4966 4970 4974 4976 4981 4984 4991 4992 4992 4997 5001 5003 5004 5011 5017 5023 5028 5031 5032 5036 5038 5041 5043 5047 5049 5055 5056 5058 5062 5068 5073 5082 5088 5093 5104 5106 5112 5116 5123 5135 5144 5151 5155 5161 5164 5172 5174 5175 5175 5179 5185 5193 5202 5211 5221 5229 5239 5250 5259 5271 5282 5300 5313 5325 5339 5352 5369 5384 5400 5413 5428 5446 5463 5485 5505 5527 5548 5566 5577 5592 5606 5627 5643 5663 5679 5697 5713 5731 5749 5765 5780 5794 5806 5821 5834 5851 5861 5878 5896 5918 5942 5972 5994 6016 6038 6062 6083 6102 6113 6118 6102 6073 6044 6014 5998 5986 5975 5957 5926 5893 5860 5826 5807 5802 5811 5813 5819 5818 5824 5836 5842 5852 5864
5255 5256 5254 5255 5253 5254 5257 5261 5273 5299 5322 5354 5382 5417 5448 5482 5514 5541 5568 5585 5604 5626 5643 5657 5672 5685 5690 5691 5684 5675 5661 5646 5629 5613 5598 5582 5562 5545 5525 5504 5488 5468 5447 5432 5409 5385 5363 5346 5335 5338 5355 5377 5399 5422 5438 5450 5457 5453 5440 5424 5406 5385 5366 5351 5354 5363 5346 5317 5291 5279 5273 5266 5261 5261 5266 5280 5302 5332 5369 5405 5435 5464 5483 5491 5500 5516 5532 5547 5557 5558 5549 5535 5519 5497 5475 5450 5420 5386 5354 5330 5325 5324 5340 5363 5381 5402 5432 5448 5465 5474 5474 5478 5474 5466 5447 5433 5415 5402 5378 5355 5340 5348 5348 5368 5402 5437 5462 5477 5471 5449 5433 5429 5425 5391 5359 5366 5402 5443 5469 5492 5510 5524 5535 5537 5530 5510 5490 5494 5507 5515 5511 5493 5466 5420 5383 5336 5289 5247 5220 5195 5149 5130 5128 5133 5140 5146 5157 5167 5179 5195 5208 5222 5253 5289 5321 5357 5382 5398 5406 5412 5417 5418 5416 5409 5402 5404 5415 5430 5447 5464 5481 5511 5530 5553 5577 5603 5633 5662 5699 5743 5791 5832 5872 5908 5900 5865 5827 5792 5760 5734 5706 5668 5625 5584 5546 5529 5552 5590 5635 5683 5730 5777 5818 5810 5761 5708 5660 5609 5557 5507 5464 5407 5364 5326 5332 5364 5398 5429 5455 5489 5526 5565 5601 5635 5673 5710 5722 5708 5684 5656 5628 5588 5555 5520 5485 5443 5403 5379 5358 5338 5335 5359 5380 5409 5448 5489 5524 5561 5591 5617 5645 5677 5707 5745 5789 5839 5878 5866 5835 5797 5757 5716 5665 5626 5590 5554 5526 5518 5540 5569 5599 5626 5648 5667 5673 5659 5629 5596 5560 5519 5478 5443 5407 5380 5357 5343 5363 5403 5446 5482 5488 5457 5414 5374 5335 5297 5269 5243 5222 5209 5199 5188 5172 5171 5194 5226 5268 5316 5369 5419 5462 5498 5502 5485 5457 5419 5383 5347 5315 5285 5264 5244 5220 5192 5164 5140 5116 5089 5066 5049 5034 5020 5004 4985 4971 4964 4957 4947 4939 4932 4921 4914 4904 4898 4894 4895 4895 4895 4896 4896 4896 4896 4894 4895 4897 4896 4895 4896 4896 4897 4895 4894 4895 4894 4894 4895 4896 4897 4894 4893 4894 4894 4892 4895 4895 4893 4895 4893 4894 4893 4891 4892 4891 4891 4895 4895 4892 4894 4894 4894 4895 4893 4894 4893 4893 4893 4894 4892 4893 4893 4893 4891 4893 4893 4894 4892 4893 4894 4894 4897 4896 4898 4900 4899 4900 4901 4902 4904 4905 4910 4911 4909 4910 4914 4913 4911 4912 4917 4919 4920 4920 4923 4926 4924 4927 4926 4931 4936 4940 4944 4945 4951 4958 4959 4962 4967 4968 4969 4974 4978 4984 4985 4987 4992 4993 4998 5002 5008 5013 5017 5021 5024 5028 5027 5030 5035 5034 5036 5039 5045 5048 5050 5056 5063 5070 5074 5080 5084 5094 5100 5102 5108 5116 5124 5130 5141 5146 5154 5159 5164 5166 5165 5169 5176 5183 5192 5200 5212 5219 5227 5241 5257 5267 5281 5290 5296 5309 5320 5333 5350 5370 5388 5402 5418 5437 5458 5477 5497 5518 5535 5546 5550 5553 5562 5577 5596 5615 5634 5645 5659 5673 5687 5709 5730 5754 5775 5795 5814 5829 5843 5860 5876 5892 5912 5929 5951 5972 5999 6026 6059 6087 6112 6133 6149 6154 6136 6114 6088 6071 6057 6046 6013 5974 5946 5916 5880 5839 5820 5820 5824 5825 5829 5837 5847 5855 5861 5871
5252 5259 5264 5267 5273 5278 5277 5281 5283 5297 5321 5350 5381 5413 5447 5478 5507 5537 5558 5580 5601 5622 5644 5664 5676 5687 5694 5692 5687 5675 5662 5648 5632 5615 5597 5580 5561 5543 5524 5501 5482 5467 5448 5424 5400 5376 5357 5344 5341 5346 5361 5386 5408 5426 5442 5459 5471 5475 5468 5456 5440 5417 5395 5375 5360 5360 5342 5314 5289 5280 5275 5268 5263 5262 5274 5291 5315 5344 5385 5416 5448 5478 5500 5513 5527 5542 5555 5563 5569 5566 5557 5544 5523 5498 5476 5449 5421 5385 5360 5343 5344 5344 5357 5379 5402 5426 5451 5473 5494 5509 5516 5521 5517 5501 5482 5471 5449 5421 5394 5372 5371 5377 5378 5386 5414 5448 5477 5495 5498 5485 5473 5473 5457 5423 5387 5384 5413 5452 5484 5512 5528 5541 5550 5553 5551 5535 5521 5528 5538 5541 5530 5503 5462 5422 5387 5337 5302 5271 5247 5209 5156 5135 5129 5134 5139 5151 5158 5172 5182 5197 5211 5226 5243 5275 5302 5325 5335 5341 5347 5351 5355 5360 5366 5381 5402 5429 5458 5487 5501 5517 5538 5563 5583 5604 5628 5653 5679 5703 5732 5763 5796 5831 5870 5908 5913 5884 5846 5816 5780 5755 5716 5671 5621 5584 5564 5553 5578 5616 5664 5702 5754 5808 5840 5812 5763 5719 5668 5625 5577 5521 5480 5427 5371 5334 5342 5367 5398 5428 5462 5493 5529 5570 5611 5652 5695 5741 5767 5753 5721 5687 5652 5605 5571 5527 5494 5455 5414 5384 5361 5343 5342 5362 5386 5421 5459 5502 5550 5592 5629 5657 5684 5717 5749 5786 5827 5869 5887 5865 5831 5794 5754 5712 5668 5623 5586 5557 5536 5548 5575 5607 5643 5666 5694 5710 5708 5679 5653 5620 5585 5543 5504 5469 5431 5404 5381 5363 5367 5405 5443 5482 5500 5475 5438 5395 5360 5325 5292 5262 5240 5223 5218 5217 5211 5212 5223 5250 5279 5323 5372 5424 5460 5494 5502 5491 5473 5444 5408 5375 5348 5322 5302 5282 5256 5232 5203 5179 5145 5116 5093 5075 5062 5042 5020 4996 4979 4970 4962 4951 4945 4935 4926 4915 4907 4898 4895 4895 4895 4897 4896 4896 4896 4895 4896 4897 4897 4896 4895 4896 4896 4896 4894 4894 4895 4895 4896 4896 4897 4897 4894 4896 4896 4895 4894 4893 4895 4892 4895 4895 4895 4893 4893 4893 4892 4892 4893 4892 4893 4894 4893 4892 4892 4891 4893 4892 4895 4895 4893 4895 4894 4893 4892 4893 4896 4893 4892 4892 4892 4892 4891 4894 4898 4899 4900 4900 4900 4903 4903 4905 4905 4903 4907 4910 4910 4912 4911 4910 4917 4917 4921 4918 4918 4922 4928 4927 4927 4927 4928 4932 4938 4939 4941 4946 4951 4953 4957 4963 4962 4967 4971 4972 4976 4979 4981 4985 4988 4992 4998 5001 5003 5006 5009 5014 5018 5019 5021 5025 5026 5028 5033 5039 5043 5046 5053 5056 5063 5069 5070 5077 5086 5093 5098 5103 5109 5118 5123 5132 5136 5144 5150 5152 5154 5160 5165 5172 5182 5190 5198 5207 5217 5227 5241 5256 5273 5290 5300 5301 5306 5315 5328 5341 5360 5378 5395 5413 5435 5458 5481 5498 5509 5508 5510 5511 5517 5527 5542 5561 5578 5598 5612 5620 5638 5658 5690 5723 5750 5770 5790 5807 5828 5842 5862 5882 5899 5916 5934 5950 5964 5985 6008 6032 6062 6103 6149 6173 6189 6188 6170 6153 6143 6124 6100 6070 6033 5997 5965 5924 5880 5840 5832 5833 5837 5840 5852 5861 5869 5868 5878
5241 5259 5268 5279 5291 5300 5303 5305 5301 5305 5319 5344 5377 5410 5440 5469 5495 5521 5544 5566 5591 5614 5637 5655 5668 5686 5694 5692 5688 5678 5664 5648 5631 5609 5591 5571 5550 5534 5514 5490 5471 5455 5432 5409 5385 5364 5357 5352 5352 5354 5365 5383 5405 5425 5444 5465 5484 5494 5490 5484 5473 5452 5425 5396 5376 5360 5334 5306 5291 5281 5279 5271 5266 5266 5281 5302 5330 5360 5393 5427 5457 5485 5508 5529 5548 5563 5571 5573 5576 5572 5561 5548 5526 5502 5479 5452 5421 5396 5372 5363 5362 5362 5371 5392 5418 5443 5469 5494 5516 5533 5544 5548 5545 5533 5519 5506 5479 5449 5423 5410 5414 5417 5414 5412 5432 5463 5490 5509 5522 5523 5518 5512 5489 5457 5424 5405 5419 5455 5490 5520 5540 5555 5563 5569 5567 5556 5546 5550 5553 5543 5525 5495 5448 5410 5374 5329 5296 5262 5239 5198 5162 5142 5133 5136 5142 5156 5163 5180 5193 5204 5213 5224 5235 5251 5272 5278 5287 5299 5313 5326 5345 5369 5398 5422 5454 5482 5513 5540 5560 5578 5598 5614 5636 5657 5672 5695 5714 5720 5724 5732 5760 5803 5847 5887 5901 5892 5869 5829 5788 5749 5706 5662 5629 5609 5588 5579 5603 5641 5683 5724 5779 5830 5846 5807 5764 5730 5679 5637 5585 5531 5484 5428 5377 5349 5361 5394 5402 5428 5467 5507 5543 5577 5622 5666 5712 5758 5798 5782 5743 5708 5670 5619 5578 5539 5507 5470 5430 5393 5367 5351 5357 5374 5394 5426 5462 5512 5566 5607 5657 5690 5721 5755 5789 5823 5865 5880 5863 5836 5806 5777 5739 5701 5659 5615 5585 5563 5554 5572 5608 5644 5677 5706 5738 5751 5744 5710 5679 5642 5609 5564 5525 5488 5452 5422 5396 5378 5380 5416 5455 5491 5510 5495 5459 5420 5384 5349 5317 5282 5257 5255 5261 5268 5265 5255 5258 5283 5306 5337 5378 5417 5449 5470 5478 5483 5470 5445 5414 5389 5375 5352 5331 5315 5291 5270 5242 5211 5178 5144 5118 5094 5077 5052 5029 5005 4990 4980 4968 4957 4950 4940 4931 4918 4906 4898 4897 4897 4897 4896 4896 4896 4897 4897 4896 4897 4897 4895 4896 4897 4896 4896 4896 4896 4897 4897 4897 4897 4898 4898 4896 4896 4896 4895 4895 4896 4896 4895 4896 4893 4895 4895 4893 4893 4892 4893 4893 4894 4897 4893 4892 4893 4894 4891 4894 4891 4895 4894 4892 4894 4895 4893 4891 4894 4892 4892 4895 4893 4893 4891 4896 4897 4894 4899 4900 4900 4901 4903 4906 4906 4906 4906 4907 4907 4910 4913 4912 4914 4916 4917 4919 4916 4919 4920 4924 4924 4927 4929 4928 4932 4935 4936 4939 4943 4945 4950 4951 4960 4961 4961 4965 4967 4969 4975 4977 4981 4983 4988 4992 4995 4997 4999 5003 5006 5009 5013 5016 5019 5022 5026 5028 5031 5038 5043 5049 5054 5059 5064 5068 5076 5081 5087 5093 5098 5102 5109 5116 5125 5129 5135 5142 5142 5148 5156 5165 5175 5183 5189 5198 5207 5217 5226 5239 5253 5271 5293 5306 5315 5319 5327 5331 5342 5354 5369 5386 5406 5424 5446 5464 5475 5476 5472 5480 5495 5513 5533 5546 5562 5577 5594 5609 5623 5639 5658 5686 5717 5744 5764 5786 5804 5823 5841 5862 5883 5905 5923 5940 5955 5969 5988 6007 6022 6046 6081 6130 6171 6201 6222 6223 6216 6203 6187 6162 6125 6093 6050 6007 5957 5913 5867 5850 5848 5852 5856 5865 5873 5880 5883 5891
5220 5246 5267 5278 5295 5308 5318 5323 5324 5328 5332 5348 5375 5402 5432 5455 5474 5499 5521 5545 5568 5591 5609 5635 5661 5680 5694 5697 5691 5680 5665 5649 5630 5606 5581 5557 5531 5513 5492 5469 5446 5429 5413 5395 5378 5374 5375 5377 5377 5374 5370 5377 5399 5421 5446 5472 5496 5509 5514 5510 5499 5476 5441 5415 5394 5366 5332 5306 5293 5284 5281 5272 5268 5273 5290 5312 5344 5372 5406 5440 5470 5494 5522 5547 5565 5577 5582 5582 5583 5577 5564 5551 5528 5506 5484 5458 5426 5406 5387 5382 5383 5383 5388 5405 5430 5457 5481 5506 5532 5550 5562 5568 5566 5563 5548 5527 5498 5467 5459 5451 5448 5448 5437 5435 5448 5473 5500 5523 5537 5547 5551 5544 5523 5494 5462 5443 5435 5456 5485 5517 5551 5567 5578 5579 5581 5572 5562 5554 5542 5517 5495 5462 5426 5383 5346 5302 5267 5244 5222 5194 5170 5152 5134 5136 5143 5160 5169 5183 5194 5204 5218 5220 5225 5237 5246 5264 5287 5318 5348 5373 5397 5422 5452 5477 5504 5532 5560 5589 5613 5636 5648 5663 5683 5699 5707 5708 5699 5687 5681 5693 5735 5781 5822 5842 5842 5849 5861 5845 5808 5765 5729 5692 5670 5650 5627 5619 5638 5671 5708 5752 5802 5844 5841 5796 5754 5704 5659 5616 5567 5515 5466 5418 5379 5361 5381 5425 5434 5434 5457 5506 5548 5593 5637 5679 5727 5778 5816 5804 5768 5731 5686 5642 5606 5570 5529 5486 5445 5405 5382 5364 5359 5373 5398 5432 5474 5525 5567 5615 5664 5702 5733 5761 5799 5845 5878 5868 5835 5802 5775 5745 5718 5682 5644 5613 5590 5572 5573 5597 5634 5675 5713 5747 5771 5783 5768 5733 5703 5664 5623 5584 5542 5504 5468 5441 5414 5397 5401 5433 5473 5504 5524 5514 5483 5451 5412 5374 5334 5302 5282 5290 5311 5322 5319 5308 5301 5318 5338 5350 5375 5400 5422 5436 5448 5450 5436 5416 5398 5384 5373 5363 5352 5341 5330 5305 5278 5245 5202 5163 5130 5100 5074 5052 5031 5017 5002 4988 4979 4968 4958 4950 4941 4929 4909 4896 4896 4896 4897 4896 4897 4896 4898 4898 4897 4897 4897 4896 4899 4898 4897 4898 4898 4897 4896 4897 4898 4895 4898 4897 4897 4896 4896 4895 4896 4897 4895 4897 4895 4894 4897 4897 4893 4894 4891 4894 4895 4895 4893 4893 4895 4894 4892 4890 4892 4894 4896 4894 4894 4894 4894 4895 4894 4895 4896 4895 4893 4894 4896 4898 4898 4896 4895 4897 4902 4904 4902 4907 4904 4904 4906 4907 4908 4909 4911 4911 4911 4913 4914 4916 4917 4917 4919 4922 4922 4925 4928 4927 4927 4935 4934 4934 4937 4940 4940 4947 4950 4950 4956 4961 4961 4966 4967 4968 4972 4976 4980 4981 4986 4991 4992 4994 5001 5004 5004 5008 5013 5018 5021 5026 5029 5034 5038 5042 5048 5052 5058 5063 5067 5072 5077 5081 5085 5091 5097 5103 5108 5116 5121 5126 5134 5140 5147 5155 5165 5176 5183 5190 5197 5207 5217 5229 5239 5249 5268 5288 5312 5329 5338 5343 5350 5362 5368 5375 5387 5394 5403 5423 5440 5447 5452 5462 5479 5503 5537 5571 5590 5604 5617 5632 5642 5656 5670 5688 5706 5727 5745 5759 5776 5796 5815 5834 5857 5880 5907 5931 5951 5968 5981 6007 6025 6040 6062 6086 6110 6133 6159 6193 6234 6257 6256 6254 6230 6182 6134 6084 6035 5984 5936 5897 5873 5869 5865 5872 5879 5884 5890 5898 5904
5204 5228 5252 5271 5289 5311 5322 5329 5339 5346 5355 5361 5378 5398 5422 5438 5451 5470 5494 5517 5543 5569 5598 5628 5654 5677 5693 5698 5697 5685 5669 5652 5630 5605 5576 5545 5515 5489 5466 5445 5423 5413 5403 5397 5394 5397 5405 5413 5411 5406 5397 5388 5394 5417 5449 5477 5503 5521 5529 5531 5517 5494 5460 5423 5398 5368 5331 5311 5291 5281 5279 5276 5270 5274 5292 5322 5352 5383 5418 5451 5483 5509 5540 5563 5580 5590 5594 5592 5586 5575 5563 5548 5527 5508 5486 5462 5438 5418 5403 5400 5400 5405 5410 5425 5442 5465 5488 5516 5542 5564 5577 5581 5583 5580 5567 5541 5515 5493 5487 5489 5481 5475 5470 5460 5466 5486 5508 5528 5545 5558 5567 5567 5553 5528 5508 5491 5471 5470 5488 5519 5552 5572 5588 5593 5590 5581 5562 5540 5513 5480 5449 5420 5389 5355 5321 5282 5256 5235 5217 5196 5172 5155 5139 5138 5148 5163 5170 5182 5192 5200 5203 5196 5212 5237 5260 5290 5321 5356 5393 5421 5450 5478 5502 5526 5550 5583 5603 5631 5654 5672 5686 5699 5706 5711 5707 5691 5669 5646 5640 5667 5710 5749 5782 5784 5783 5794 5818 5840 5834 5801 5758 5724 5702 5697 5678 5666 5679 5711 5742 5780 5826 5855 5827 5780 5729 5680 5631 5588 5536 5490 5448 5423 5403 5380 5377 5421 5455 5466 5468 5495 5539 5595 5648 5695 5738 5796 5828 5827 5796 5755 5718 5677 5640 5598 5553 5510 5458 5419 5390 5377 5372 5381 5401 5432 5476 5522 5569 5613 5658 5689 5713 5749 5793 5836 5865 5854 5819 5783 5748 5718 5691 5663 5634 5610 5593 5584 5594 5619 5659 5702 5747 5785 5811 5817 5791 5754 5721 5685 5643 5598 5553 5518 5483 5455 5427 5414 5425 5463 5496 5528 5547 5540 5513 5478 5438 5397 5358 5331 5314 5331 5355 5372 5373 5363 5350 5349 5356 5357 5362 5376 5392 5401 5409 5411 5395 5376 5362 5351 5341 5338 5341 5343 5338 5328 5304 5268 5218 5177 5146 5120 5094 5068 5047 5036 5025 5008 4994 4982 4971 4963 4954 4940 4915 4898 4897 4899 4898 4896 4897 4897 4898 4898 4898 4898 4897 4899 4900 4899 4898 4900 4897 4896 4898 4897 4897 4897 4899 4900 4896 4895 4898 4897 4896 4897 4895 4895 4895 4896 4895 4894 4894 4896 4895 4895 4896 4896 4895 4895 4896 4895 4892 4893 4894 4895 4895 4894 4894 4895 4895 4897 4895 4895 4897 4896 4894 4897 4897 4899 4899 4901 4901 4899 4902 4900 4903 4901 4903 4902 4903 4907 4909 4910 4911 4911 4912 4914 4916 4917 4916 4921 4923 4922 4923 4928 4929 4929 4930 4932 4935 4936 4937 4938 4942 4944 4948 4948 4950 4955 4959 4962 4966 4967 4971 4975 4976 4979 4981 4987 4990 4990 4992 4998 5000 5007 5012 5013 5020 5023 5028 5032 5036 5040 5047 5052 5056 5061 5066 5071 5075 5081 5087 5092 5097 5104 5109 5115 5121 5129 5137 5146 5150 5158 5166 5174 5184 5192 5200 5210 5221 5230 5237 5251 5267 5283 5302 5324 5338 5358 5373 5385 5391 5399 5411 5413 5414 5430 5443 5458 5476 5497 5512 5529 5557 5592 5618 5641 5660 5681 5697 5716 5734 5755 5771 5784 5803 5815 5828 5845 5859 5873 5888 5908 5930 5945 5964 5979 5996 6018 6035 6050 6067 6091 6112 6124 6137 6162 6196 6241 6281 6283 6240 6192 6137 6084 6030 5991 5952 5918 5896 5883 5882 5883 5889 5893 5901 5912 5917
5201 5215 5236 5255 5277 5302 5318 5332 5341 5350 5362 5384 5396 5407 5422 5436 5450 5463 5486 5509 5540 5573 5614 5652 5676 5695 5705 5709 5707 5691 5673 5653 5633 5607 5575 5545 5508 5474 5455 5447 5442 5438 5435 5433 5429 5426 5438 5450 5450 5439 5419 5404 5401 5416 5443 5477 5506 5531 5546 5550 5535 5509 5475 5438 5402 5372 5337 5312 5298 5287 5280 5276 5273 5283 5301 5328 5362 5397 5435 5465 5498 5529 5558 5579 5594 5601 5603 5597 5588 5575 5559 5542 5527 5507 5486 5467 5449 5428 5419 5417 5418 5420 5427 5440 5455 5478 5504 5530 5555 5576 5590 5598 5598 5590 5578 5562 5543 5530 5526 5523 5516 5507 5495 5483 5484 5498 5514 5533 5549 5562 5573 5576 5579 5568 5549 5529 5509 5505 5516 5535 5559 5583 5595 5602 5604 5590 5557 5519 5480 5444 5411 5383 5355 5334 5312 5292 5275 5259 5235 5204 5170 5144 5138 5138 5150 5162 5168 5176 5182 5179 5182 5196 5220 5250 5281 5311 5349 5386 5424 5462 5495 5523 5550 5575 5598 5618 5638 5655 5670 5682 5692 5700 5699 5699 5691 5663 5634 5609 5614 5648 5685 5709 5723 5725 5721 5737 5764 5794 5829 5828 5792 5765 5752 5745 5724 5715 5727 5753 5781 5815 5855 5858 5810 5760 5713 5656 5608 5560 5519 5477 5463 5467 5446 5406 5386 5412 5446 5473 5498 5509 5540 5588 5644 5696 5742 5793 5840 5851 5825 5786 5747 5705 5662 5614 5569 5521 5473 5435 5407 5390 5384 5384 5403 5431 5471 5514 5560 5606 5645 5664 5695 5737 5785 5834 5861 5847 5810 5767 5729 5697 5674 5653 5632 5614 5597 5600 5618 5645 5687 5730 5776 5818 5839 5825 5796 5761 5727 5690 5649 5606 5561 5524 5492 5467 5444 5429 5447 5483 5520 5555 5575 5568 5542 5505 5464 5422 5388 5354 5343 5367 5396 5418 5426 5417 5392 5370 5350 5340 5342 5354 5362 5372 5376 5368 5352 5337 5317 5307 5301 5299 5310 5321 5330 5330 5313 5279 5236 5196 5168 5147 5118 5093 5078 5066 5050 5029 5012 4993 4980 4968 4956 4942 4919 4899 4899 4901 4898 4897 4899 4900 4899 4898 4897 4897 4900 4900 4900 4899 4899 4900 4899 4896 4897 4897 4899 4896 4895 4899 4897 4896 4896 4897 4897 4896 4897 4896 4896 4896 4896 4896 4896 4898 4897 4895 4897 4895 4895 4895 4896 4895 4895 4896 4894 4894 4893 4894 4895 4895 4894 4895 4896 4896 4897 4896 4896 4900 4898 4901 4900 4901 4897 4898 4902 4899 4900 4901 4905 4905 4906 4908 4909 4909 4912 4910 4912 4913 4915 4918 4918 4919 4923 4923 4925 4927 4928 4930 4930 4932 4933 4937 4938 4938 4942 4944 4948 4950 4953 4957 4958 4961 4964 4967 4969 4971 4976 4979 4979 4983 4988 4990 4993 4998 4999 5004 5010 5014 5017 5018 5025 5031 5036 5040 5045 5050 5055 5059 5064 5069 5074 5081 5085 5090 5096 5102 5107 5117 5124 5135 5145 5154 5159 5166 5172 5178 5185 5194 5201 5210 5221 5231 5241 5252 5266 5279 5294 5314 5332 5355 5376 5396 5410 5424 5434 5440 5446 5460 5478 5498 5519 5535 5549 5564 5584 5607 5630 5652 5676 5702 5728 5753 5781 5809 5834 5852 5868 5879 5879 5902 5935 5946 5957 5965 5976 5990 5994 5999 6008 6027 6041 6058 6067 6090 6113 6136 6151 6163 6181 6212 6247 6268 6242 6181 6115 6062 6021 5992 5963 5940 5921 5901 5893 5886 5893 5901 5906 5911 5920
5205 5214 5224 5240 5259 5282 5302 5317 5337 5350 5367 5386 5408 5425 5441 5455 5472 5492 5509 5536 5559 5595 5637 5677 5711 5729 5730 5725 5719 5705 5689 5664 5637 5612 5581 5546 5509 5485 5482 5482 5484 5484 5484 5477 5463 5451 5467 5486 5490 5475 5453 5432 5418 5420 5446 5483 5512 5539 5559 5566 5549 5521 5488 5453 5411 5374 5341 5315 5297 5289 5283 5278 5278 5285 5305 5336 5375 5412 5448 5479 5516 5547 5575 5597 5612 5615 5615 5608 5592 5578 5554 5539 5525 5508 5491 5474 5463 5447 5437 5434 5436 5437 5444 5459 5474 5497 5522 5546 5570 5590 5606 5614 5617 5609 5598 5587 5572 5565 5564 5557 5547 5521 5504 5499 5501 5509 5519 5534 5549 5562 5574 5584 5590 5590 5583 5567 5551 5549 5560 5567 5578 5594 5609 5618 5620 5597 5560 5520 5477 5449 5427 5406 5382 5369 5357 5340 5304 5266 5232 5193 5157 5138 5136 5139 5144 5151 5156 5163 5167 5177 5196 5211 5233 5256 5287 5328 5367 5404 5444 5487 5516 5547 5578 5599 5618 5633 5647 5659 5670 5672 5675 5677 5677 5674 5661 5629 5597 5578 5600 5632 5651 5661 5667 5663 5667 5689 5710 5745 5790 5831 5831 5810 5792 5785 5770 5767 5772 5803 5829 5858 5882 5853 5801 5756 5705 5658 5614 5567 5520 5492 5504 5509 5486 5446 5416 5407 5442 5478 5503 5528 5554 5589 5633 5683 5732 5783 5830 5862 5853 5815 5771 5725 5677 5626 5578 5526 5486 5451 5417 5398 5392 5393 5411 5430 5461 5504 5550 5588 5612 5645 5687 5731 5783 5830 5864 5847 5811 5767 5728 5692 5665 5651 5637 5619 5610 5624 5649 5681 5719 5762 5805 5846 5852 5820 5790 5754 5720 5685 5648 5604 5565 5529 5500 5476 5456 5447 5468 5502 5539 5573 5602 5597 5570 5533 5490 5448 5412 5380 5380 5410 5435 5451 5457 5439 5410 5374 5343 5319 5314 5321 5329 5340 5343 5330 5317 5305 5283 5265 5260 5258 5272 5291 5305 5311 5297 5265 5229 5198 5171 5147 5130 5119 5101 5079 5056 5031 5009 4993 4975 4962 4949 4936 4912 4899 4900 4899 4899 4899 4899 4900 4898 4899 4898 4899 4899 4901 4902 4901 4901 4900 4899 4898 4899 4897 4902 4899 4899 4898 4897 4899 4898 4900 4897 4897 4897 4897 4896 4896 4897 4896 4896 4898 4895 4895 4895 4897 4897 4896 4896 4897 4897 4896 4894 4894 4896 4896 4895 4895 4895 4896 4895 4895 4897 4899 4897 4898 4897 4898 4897 4900 4897 4901 4901 4900 4901 4903 4904 4903 4907 4909 4910 4910 4912 4911 4914 4914 4916 4917 4918 4918 4921 4922 4926 4926 4927 4928 4929 4934 4935 4938 4939 4942 4943 4945 4948 4948 4951 4954 4957 4962 4967 4968 4970 4971 4975 4979 4980 4982 4988 4991 4994 4998 5000 5004 5008 5013 5017 5021 5026 5029 5033 5039 5043 5047 5052 5055 5062 5067 5073 5078 5084 5089 5095 5101 5110 5120 5132 5144 5156 5162 5172 5176 5182 5184 5192 5197 5204 5212 5222 5230 5241 5251 5265 5277 5291 5307 5325 5346 5366 5388 5406 5421 5431 5443 5457 5482 5505 5524 5538 5555 5572 5592 5612 5627 5654 5676 5698 5718 5743 5775 5804 5835 5865 5898 5921 5929 5923 5938 5964 5990 6014 6039 6050 6056 6059 6050 6042 6047 6054 6069 6075 6093 6117 6144 6163 6178 6186 6203 6230 6248 6248 6207 6127 6064 6037 6011 5984 5966 5947 5924 5912 5904 5900 5903 5909 5911 5919
5210 5216 5220 5228 5244 5265 5284 5305 5326 5343 5366 5384 5403 5426 5449 5469 5492 5518 5544 5569 5600 5625 5662 5702 5732 5747 5748 5743 5731 5717 5699 5676 5652 5621 5589 5553 5523 5513 5521 5527 5532 5534 5530 5518 5499 5484 5496 5519 5522 5506 5485 5462 5441 5433 5453 5485 5519 5550 5572 5574 5562 5536 5505 5469 5425 5380 5348 5321 5302 5291 5285 5279 5278 5291 5311 5344 5384 5424 5457 5494 5530 5562 5590 5611 5626 5630 5625 5616 5597 5579 5554 5538 5524 5512 5499 5485 5473 5464 5455 5455 5454 5457 5470 5480 5494 5514 5536 5559 5584 5605 5617 5628 5634 5629 5622 5610 5597 5591 5588 5579 5566 5551 5527 5514 5513 5517 5528 5540 5549 5561 5574 5585 5594 5600 5603 5601 5594 5592 5597 5600 5604 5609 5617 5625 5627 5609 5576 5540 5522 5499 5479 5459 5433 5417 5394 5354 5308 5267 5230 5183 5154 5140 5139 5142 5148 5155 5161 5173 5181 5191 5200 5210 5225 5256 5292 5326 5369 5406 5446 5486 5520 5552 5575 5595 5608 5621 5633 5641 5648 5649 5647 5641 5640 5642 5625 5592 5553 5555 5585 5602 5605 5605 5606 5608 5623 5641 5673 5720 5769 5820 5849 5832 5800 5769 5767 5792 5806 5833 5860 5885 5893 5877 5838 5785 5728 5679 5623 5577 5540 5524 5537 5550 5529 5488 5449 5428 5457 5485 5507 5536 5560 5598 5635 5680 5731 5782 5818 5860 5866 5831 5782 5736 5677 5627 5575 5535 5495 5455 5426 5412 5402 5403 5414 5428 5456 5493 5528 5565 5604 5645 5690 5731 5793 5829 5880 5857 5817 5766 5729 5695 5663 5647 5635 5627 5638 5662 5689 5721 5760 5794 5837 5858 5840 5801 5770 5740 5709 5672 5641 5600 5567 5535 5509 5487 5468 5470 5491 5515 5549 5586 5618 5621 5594 5558 5514 5468 5432 5408 5416 5440 5462 5466 5452 5433 5401 5364 5327 5297 5286 5293 5301 5310 5310 5292 5273 5270 5263 5243 5225 5229 5242 5262 5280 5288 5275 5241 5199 5165 5147 5131 5118 5110 5092 5072 5044 5018 4996 4976 4960 4948 4934 4918 4905 4900 4901 4900 4899 4900 4900 4900 4899 4901 4901 4899 4899 4902 4902 4901 4901 4901 4899 4900 4900 4901 4903 4900 4899 4897 4900 4900 4899 4898 4898 4901 4900 4897 4896 4896 4897 4896 4897 4898 4897 4897 4896 4899 4899 4896 4897 4898 4899 4900 4897 4894 4899 4896 4897 4897 4897 4897 4898 4896 4897 4898 4898 4897 4895 4896 4899 4898 4900 4903 4901 4902 4902 4903 4904 4905 4905 4907 4910 4909 4909 4911 4915 4912 4915 4917 4918 4921 4921 4925 4925 4927 4928 4930 4932 4934 4937 4938 4941 4943 4943 4946 4948 4950 4951 4953 4957 4960 4963 4965 4968 4971 4974 4977 4980 4983 4987 4992 4994 4996 5001 5004 5009 5012 5016 5019 5025 5029 5034 5038 5040 5045 5050 5054 5060 5066 5071 5077 5083 5089 5097 5106 5118 5130 5142 5154 5165 5174 5182 5190 5194 5200 5204 5208 5211 5217 5224 5232 5240 5249 5264 5274 5288 5305 5322 5339 5358 5379 5393 5408 5427 5454 5473 5490 5514 5525 5538 5554 5571 5591 5620 5641 5676 5701 5727 5745 5763 5792 5820 5849 5878 5906 5930 5944 5948 5963 5988 6011 6044 6086 6113 6118 6123 6110 6099 6092 6089 6093 6097 6111 6129 6158 6173 6184 6192 6212 6243 6259 6259 6247 6187 6127 6090 6063 6033 6011 5981 5957 5935 5919 5911 5909 5914 5915 5920
5220 5217 5217 5226 5235 5254 5272 5293 5312 5336 5353 5375 5395 5419 5444 5470 5496 5524 5560 5596 5627 5657 5687 5717 5740 5751 5755 5754 5742 5729 5710 5687 5666 5636 5604 5569 5547 5550 5565 5572 5575 5577 5572 5556 5534 5518 5523 5542 5546 5532 5511 5488 5465 5449 5456 5489 5525 5561 5582 5588 5576 5554 5522 5484 5440 5393 5352 5323 5306 5295 5286 5280 5281 5293 5315 5346 5387 5435 5476 5506 5543 5576 5604 5624 5633 5634 5628 5614 5596 5575 5556 5540 5526 5516 5504 5496 5485 5477 5475 5478 5479 5486 5495 5505 5516 5528 5547 5567 5591 5613 5627 5635 5641 5642 5638 5629 5619 5615 5608 5594 5582 5563 5544 5530 5526 5526 5539 5547 5556 5564 5574 5587 5599 5610 5616 5622 5622 5622 5622 5619 5618 5617 5622 5626 5628 5620 5604 5580 5566 5546 5524 5499 5471 5442 5401 5352 5310 5269 5231 5185 5150 5140 5142 5145 5152 5161 5167 5173 5184 5194 5200 5211 5224 5249 5286 5324 5362 5405 5442 5478 5509 5536 5556 5570 5581 5593 5602 5609 5613 5611 5606 5601 5596 5593 5582 5550 5514 5528 5548 5547 5548 5545 5548 5558 5593 5631 5680 5736 5785 5817 5823 5799 5765 5726 5723 5748 5775 5805 5830 5859 5894 5891 5850 5792 5742 5688 5642 5605 5575 5559 5583 5596 5564 5526 5487 5453 5453 5476 5507 5527 5557 5591 5629 5673 5718 5763 5806 5841 5854 5826 5786 5737 5682 5632 5596 5562 5519 5474 5437 5417 5404 5407 5409 5428 5458 5487 5524 5573 5612 5659 5699 5745 5799 5850 5891 5868 5829 5790 5750 5715 5682 5654 5652 5658 5673 5702 5735 5768 5803 5835 5861 5848 5814 5779 5749 5722 5693 5665 5632 5595 5566 5545 5517 5498 5489 5495 5511 5536 5566 5602 5633 5637 5614 5577 5535 5491 5454 5442 5446 5454 5460 5453 5434 5409 5379 5343 5306 5277 5260 5264 5270 5279 5275 5259 5239 5235 5240 5227 5202 5200 5215 5237 5256 5265 5251 5215 5169 5130 5106 5089 5081 5074 5063 5046 5021 4999 4978 4957 4940 4927 4916 4905 4901 4900 4900 4900 4901 4901 4900 4899 4899 4901 4901 4901 4901 4900 4900 4901 4902 4901 4901 4903 4900 4901 4903 4902 4900 4901 4901 4901 4898 4899 4899 4900 4899 4897 4897 4897 4898 4898 4897 4896 4898 4897 4896 4898 4896 4895 4898 4897 4901 4899 4898 4896 4896 4895 4896 4897 4897 4896 4897 4897 4898 4898 4898 4897 4896 4895 4898 4898 4898 4902 4902 4901 4899 4902 4906 4905 4906 4906 4908 4909 4911 4911 4914 4912 4917 4920 4922 4924 4923 4925 4926 4927 4932 4932 4932 4934 4938 4938 4938 4940 4943 4946 4949 4950 4952 4955 4957 4959 4962 4967 4969 4970 4973 4978 4980 4984 4986 4990 4994 4996 4999 5003 5007 5009 5015 5019 5023 5026 5032 5038 5041 5044 5050 5056 5061 5067 5072 5077 5083 5091 5101 5112 5124 5138 5151 5163 5175 5183 5195 5203 5208 5215 5219 5219 5222 5227 5235 5239 5244 5255 5267 5277 5288 5305 5319 5335 5354 5373 5391 5410 5434 5459 5480 5493 5503 5511 5523 5533 5540 5565 5593 5623 5662 5692 5722 5748 5772 5800 5828 5855 5882 5912 5936 5942 5951 5973 5994 6025 6057 6096 6137 6164 6181 6172 6160 6158 6143 6144 6142 6156 6169 6193 6211 6214 6223 6240 6263 6275 6276 6272 6240 6191 6153 6121 6097 6064 6024 5985 5957 5943 5928 5922 5920 5930 5928
5228 5226 5228 5230 5232 5244 5263 5279 5302 5322 5342 5360 5381 5405 5435 5461 5491 5526 5560 5602 5642 5670 5691 5715 5731 5748 5759 5759 5754 5743 5724 5699 5677 5653 5621 5591 5582 5592 5606 5614 5620 5619 5610 5593 5571 5555 5552 5564 5568 5558 5534 5516 5494 5475 5470 5491 5528 5560 5586 5600 5593 5571 5540 5496 5455 5410 5362 5327 5308 5298 5294 5285 5284 5291 5317 5353 5397 5446 5486 5517 5557 5590 5615 5635 5645 5644 5633 5614 5596 5578 5561 5545 5532 5522 5514 5504 5499 5496 5502 5506 5513 5521 5527 5534 5539 5547 5559 5577 5597 5616 5631 5640 5643 5645 5642 5636 5631 5625 5615 5603 5590 5571 5554 5547 5543 5541 5550 5557 5569 5579 5587 5598 5608 5621 5631 5637 5637 5639 5634 5628 5622 5620 5622 5623 5626 5625 5613 5599 5590 5571 5546 5513 5479 5434 5380 5333 5288 5255 5216 5187 5149 5144 5145 5146 5155 5166 5170 5177 5186 5196 5203 5212 5226 5252 5287 5325 5359 5399 5431 5461 5486 5506 5523 5533 5543 5554 5561 5564 5567 5562 5553 5547 5543 5542 5533 5510 5477 5482 5488 5486 5489 5502 5528 5556 5598 5640 5690 5734 5772 5780 5769 5745 5716 5680 5667 5692 5721 5751 5776 5816 5865 5881 5836 5782 5739 5695 5660 5634 5607 5593 5627 5635 5606 5566 5526 5493 5469 5478 5502 5526 5555 5586 5616 5654 5695 5735 5770 5800 5818 5814 5783 5739 5698 5665 5629 5589 5541 5494 5456 5431 5420 5417 5417 5427 5458 5490 5526 5569 5614 5659 5705 5755 5796 5835 5883 5884 5852 5816 5785 5751 5722 5702 5692 5694 5717 5747 5776 5814 5847 5873 5870 5838 5801 5767 5738 5714 5687 5658 5629 5598 5572 5550 5531 5515 5507 5522 5541 5565 5594 5623 5650 5655 5631 5596 5554 5519 5486 5463 5447 5439 5435 5425 5407 5382 5355 5323 5291 5258 5243 5237 5241 5246 5242 5228 5207 5199 5207 5201 5182 5175 5194 5216 5232 5242 5234 5204 5172 5132 5096 5061 5043 5036 5027 5013 4997 4978 4957 4941 4927 4914 4904 4901 4903 4902 4900 4900 4901 4900 4899 4900 4900 4902 4899 4901 4901 4902 4902 4903 4900 4902 4902 4900 4899 4901 4903 4901 4901 4901 4901 4898 4899 4901 4902 4901 4899 4899 4900 4899 4897 4897 4900 4900 4897 4896 4897 4896 4897 4898 4898 4897 4899 4899 4899 4897 4899 4897 4897 4897 4898 4899 4899 4898 4898 4897 4898 4898 4896 4896 4899 4899 4899 4899 4903 4905 4901 4904 4905 4907 4908 4908 4910 4911 4913 4913 4914 4915 4918 4922 4926 4927 4925 4926 4926 4927 4931 4932 4933 4935 4938 4940 4939 4942 4945 4947 4949 4950 4952 4953 4956 4959 4962 4967 4970 4970 4973 4977 4979 4982 4986 4990 4994 4996 5000 5003 5006 5009 5014 5017 5022 5025 5033 5037 5045 5047 5054 5061 5067 5072 5074 5080 5085 5096 5108 5122 5134 5149 5162 5174 5185 5195 5208 5215 5224 5231 5233 5233 5237 5240 5248 5252 5253 5258 5267 5278 5292 5306 5321 5337 5359 5378 5401 5421 5447 5471 5483 5499 5508 5524 5542 5550 5559 5577 5593 5610 5633 5658 5683 5705 5738 5769 5794 5820 5851 5884 5906 5919 5932 5949 5971 6000 6032 6071 6122 6184 6224 6242 6234 6226 6220 6213 6209 6221 6231 6249 6274 6283 6283 6288 6298 6307 6308 6312 6291 6261 6215 6175 6139 6113 6072 6040 6001 5980 5962 5950 5939 5938 5945
