5596 5563 5544 5536 5553 5590 5631 5673 5728 5768 5742 5693 5639 5585 5533 5490 5429 5383 5350 5349 5360 5387 5424 5458 5494 5519 5544 5571 5583 5585 5565 5543 5567 5606 5642 5677 5709 5726 5731 5707 5691 5709 5748 5783 5832 5884 5940 5990 6037 6088 6130 6167 6186 6164 6127 6079 6027 5995 5996 6001 6004 6006 6009 6012 6009 6011 6024 6065 6116 6177 6232 6288 6347 6412 6441 6435 6392 6357 6332 6309 6294 6276 6253 6235 6222 6211 6202 6194 6196 6204 6219 6226 6190 6140 6096 6050 6000 5958 5910 5866 5821 5790 5749 5716 5703 5699 5692 5689 5700 5724 5747 5755 5762 5758 5753 5753 5740 5710 5692 5673 5656 5633 5616 5596 5578 5564 5543 5523 5504 5494 5488 5475 5469 5463 5459 5453 5447 5438 5423 5410 5396 5379 5363 5349 5339 5334 5328 5328 5326 5327 5328 5330 5335 5336 5331 5322 5311 5293 5278 5262 5245 5235 5228 5218 5205 5195 5184 5176 5176 5175 5171 5162 5155 5153 5151 5149 5145 5142 5140 5138 5135 5132 5131 5126 5123 5119 5115 5113 5111 5109 5110 5109 5108 5112 5115 5109 5104 5101 5101 5101 5101 5101 5101 5101 5101 5101 5101 5101 5101 5101 5101 5101 5101 5101 5101 5101 5101 5101 5101 5101 5101 5101 5101 5101 5101 5101 5101 5101 5101 5101 5101 5101 5101 5101 5101 5101 5101 5101 5101 5101 5101 5101 5101 5101 5101 5101 5101 5101 5101 5101 5101 5101 5101 5101 5101 5101 5101 5101 5101 5101 5101 5101 5101 5101 5101 5101 5101 5101 5101 5114 5131 5142 5148 5148 5158 5160 5164 5171 5175 5181 5183 5185 5186 5189 5191 5188 5189 5197 5205 5222 5249 5268 5289 5316 5344 5367 5383 5399 5413 5420 5426 5433 5442 5449 5456 5456 5453 5449 5441 5428 5416 5404 5396 5386 5369 5355 5339 5323 5311 5303 5295 5289 5289 5287 5281 5277 5274 5270 5272 5274 5281 5284 5301 5323 5349 5376 5401 5423 5439 5452 5459 5461 5465 5475 5462 5452 5439 5424 5408 5390 5385 5374 5374 5374 5376 5370 5357 5345 5338 5331 5327 5323 5327 5334 5341 5348 5350 5352 5356 5359 5356 5357 5359 5358 5359 5363 5371 5377 5385 5401 5419 5436 5461 5490 5513 5533 5544 5542 5528 5510 5493 5479 5469 5463 5457 5461 5465 5473 5484 5500 5523 5548 5572 5578 5576 5565 5551 5538 5522 5511 5497 5481 5469 5459 5447 5444 5439 5434 5435 5432 5434 5436 5441 5449 5451 5448 5434 5415 5399 5391 5403 5424 5443 5454 5441 5416 5395 5403 5409 5398 5393 5410 5444 5479 5510 5537 5554 5561 5556 5550 5532 5523 5530 5528 5523 5515 5501 5491 5488 5482 5483 5498 5515 5534 5546 5538 5518 5495 5470 5445 5438 5441 5448 5440 5415 5396 5405 5423 5420 5420 5428 5444 5450 5448 5435 5420 5399 5386 5380 5381 5396 5416 5439 5452 5466 5479 5492 5505 5507 5493 5474 5468 5472 5479 5489 5499 5509 5504 5491 5477 5455 5432 5414 5401 5399 5396 5390 5387 5378 5372 5360 5349 5343 5335 5336 5341 5345 5353 5360 5367 5372 5378 5387 5391 5394 5400 5409 5414 5418 5422 5440 5449 5462 5469 5477 5489 5506 5515 5511 5495 5476 5453 5437 5439 5469 5499 5518 5532 5539 5538 5538 5540 5532 5538 5559 5562 5576 5597 5601 5597 5617 5653 5681 5708 5734 5750 5759 5751 5733 5714 5697 5676 5652 5630 5610 5584 5553 5534 5535 5542 5542 5544 5539 5533 5514 5489 5509
5569 5540 5518 5514 5536 5573 5619 5661 5709 5729 5706 5664 5617 5564 5513 5462 5409 5370 5343 5345 5355 5377 5414 5452 5484 5512 5533 5548 5540 5528 5516 5521 5548 5568 5602 5639 5661 5671 5673 5665 5661 5692 5725 5771 5822 5875 5930 5987 6036 6075 6115 6140 6142 6112 6078 6036 5996 5970 5976 5983 5987 5991 5995 5996 5996 6005 6029 6083 6137 6188 6252 6309 6360 6392 6406 6377 6323 6291 6262 6245 6244 6246 6236 6230 6217 6205 6196 6181 6169 6166 6177 6203 6185 6144 6101 6056 6013 5971 5923 5878 5841 5804 5770 5735 5709 5692 5686 5682 5681 5687 5702 5704 5698 5699 5695 5689 5674 5649 5636 5613 5596 5583 5571 5559 5550 5528 5509 5495 5477 5462 5460 5457 5458 5453 5447 5437 5426 5411 5394 5388 5383 5372 5360 5350 5343 5342 5342 5344 5344 5343 5348 5353 5359 5354 5341 5324 5303 5282 5267 5254 5241 5229 5218 5210 5196 5186 5179 5174 5172 5170 5167 5161 5152 5151 5149 5147 5144 5140 5138 5137 5134 5130 5130 5127 5122 5119 5116 5114 5113 5110 5108 5107 5109 5109 5116 5115 5106 5101 5101 5101 5101 5101 5101 5101 5101 5101 5101 5101 5101 5101 5101 5101 5101 5101 5101 5101 5101 5101 5101 5101 5101 5101 5101 5101 5101 5101 5101 5101 5101 5101 5101 5101 5101 5101 5101 5101 5101 5101 5101 5101 5101 5101 5101 5101 5101 5101 5101 5101 5101 5101 5101 5101 5101 5101 5101 5101 5101 5101 5101 5101 5101 5101 5101 5101 5101 5101 5101 5101 5104 5118 5140 5152 5153 5158 5161 5165 5173 5180 5187 5193 5196 5198 5197 5197 5194 5192 5193 5202 5207 5221 5245 5259 5284 5309 5337 5362 5381 5402 5414 5420 5427 5432 5433 5436 5443 5444 5445 5439 5432 5422 5413 5402 5390 5380 5373 5361 5345 5330 5310 5296 5290 5284 5282 5280 5276 5275 5274 5270 5271 5272 5279 5288 5302 5325 5350 5377 5399 5417 5426 5431 5431 5428 5434 5440 5431 5422 5415 5399 5385 5376 5362 5351 5354 5350 5349 5342 5336 5329 5325 5323 5323 5323 5325 5327 5331 5338 5344 5345 5344 5345 5351 5355 5351 5349 5354 5361 5367 5375 5385 5399 5415 5428 5447 5468 5485 5496 5506 5508 5499 5488 5475 5464 5453 5449 5449 5455 5462 5475 5489 5506 5534 5560 5580 5586 5584 5568 5554 5540 5525 5515 5500 5485 5476 5470 5464 5456 5455 5453 5452 5453 5457 5464 5475 5483 5487 5480 5457 5434 5415 5411 5428 5453 5478 5487 5472 5442 5413 5422 5436 5424 5411 5420 5454 5488 5523 5558 5583 5594 5594 5583 5572 5568 5568 5561 5557 5544 5526 5517 5510 5505 5500 5511 5530 5548 5556 5548 5527 5504 5476 5449 5420 5409 5406 5403 5390 5379 5385 5394 5395 5391 5395 5412 5413 5425 5429 5422 5415 5405 5401 5407 5420 5436 5445 5453 5466 5478 5492 5502 5501 5487 5464 5445 5443 5447 5453 5477 5494 5487 5482 5471 5458 5440 5423 5407 5396 5386 5381 5376 5369 5363 5353 5350 5344 5338 5340 5344 5349 5357 5363 5370 5376 5384 5392 5397 5402 5407 5415 5422 5423 5431 5445 5462 5484 5498 5511 5523 5537 5542 5532 5513 5486 5466 5453 5451 5477 5507 5532 5554 5569 5575 5576 5574 5560 5560 5585 5594 5597 5617 5631 5626 5634 5658 5686 5714 5733 5746 5750 5746 5730 5713 5699 5681 5656 5632 5610 5588 5559 5529 5510 5512 5522 5528 5525 5518 5497 5472 5489
5545 5515 5496 5495 5518 5556 5604 5646 5673 5675 5649 5616 5580 5534 5487 5433 5384 5350 5336 5338 5355 5372 5394 5421 5449 5482 5495 5489 5486 5479 5479 5494 5515 5539 5565 5597 5618 5626 5631 5629 5643 5674 5713 5761 5815 5869 5923 5975 6020 6052 6083 6095 6083 6060 6026 5989 5960 5951 5955 5960 5964 5972 5978 5980 5982 5987 6031 6088 6156 6214 6269 6323 6365 6361 6344 6320 6263 6220 6198 6185 6180 6183 6186 6193 6188 6191 6184 6171 6154 6150 6155 6176 6178 6141 6097 6057 6017 5980 5940 5895 5856 5820 5784 5754 5722 5695 5682 5672 5658 5655 5667 5673 5659 5645 5639 5634 5617 5599 5593 5582 5567 5552 5537 5524 5516 5501 5493 5485 5478 5474 5463 5446 5436 5427 5420 5422 5413 5405 5407 5416 5406 5391 5379 5366 5355 5356 5358 5353 5358 5362 5367 5373 5371 5359 5339 5319 5296 5279 5260 5244 5232 5222 5209 5199 5189 5176 5174 5169 5170 5168 5163 5155 5149 5148 5147 5143 5142 5139 5136 5134 5132 5131 5128 5124 5121 5119 5117 5116 5114 5111 5108 5109 5109 5104 5108 5112 5106 5101 5101 5101 5101 5101 5101 5101 5101 5101 5101 5101 5101 5101 5101 5101 5101 5101 5101 5101 5101 5101 5101 5101 5101 5101 5101 5101 5101 5101 5101 5101 5101 5101 5101 5101 5101 5101 5101 5101 5101 5101 5101 5101 5101 5101 5101 5101 5101 5101 5101 5101 5101 5101 5101 5101 5101 5101 5101 5101 5101 5101 5101 5101 5101 5101 5101 5101 5101 5101 5101 5101 5106 5117 5135 5148 5153 5159 5166 5171 5178 5189 5202 5209 5209 5207 5204 5199 5193 5192 5196 5200 5208 5222 5231 5252 5271 5293 5317 5344 5366 5391 5410 5418 5423 5422 5419 5422 5427 5425 5430 5426 5417 5414 5406 5396 5387 5376 5366 5353 5341 5323 5313 5296 5290 5285 5280 5275 5273 5270 5269 5267 5266 5271 5277 5285 5298 5316 5343 5367 5387 5399 5398 5400 5402 5392 5398 5404 5401 5393 5381 5367 5355 5351 5341 5335 5333 5331 5328 5326 5323 5318 5317 5315 5315 5321 5323 5322 5326 5329 5331 5336 5337 5341 5341 5344 5344 5349 5353 5359 5367 5373 5382 5389 5401 5415 5429 5437 5449 5460 5471 5473 5469 5460 5451 5446 5439 5441 5445 5452 5462 5478 5497 5519 5546 5570 5589 5596 5593 5575 5558 5542 5530 5521 5506 5494 5487 5485 5481 5481 5479 5483 5481 5479 5477 5492 5505 5513 5515 5504 5478 5452 5433 5434 5456 5482 5503 5505 5485 5451 5430 5442 5459 5453 5436 5431 5457 5497 5532 5559 5584 5600 5609 5612 5610 5607 5605 5596 5588 5570 5555 5547 5534 5526 5522 5529 5543 5555 5557 5544 5527 5509 5487 5463 5434 5416 5396 5376 5364 5354 5363 5373 5379 5365 5370 5379 5387 5411 5427 5426 5425 5425 5427 5428 5436 5445 5448 5454 5469 5482 5490 5493 5490 5482 5464 5436 5418 5423 5425 5453 5469 5453 5453 5464 5454 5440 5429 5423 5410 5397 5386 5375 5367 5358 5352 5346 5343 5339 5343 5346 5354 5364 5370 5376 5384 5393 5402 5404 5411 5417 5423 5433 5437 5442 5454 5475 5494 5522 5541 5558 5569 5564 5542 5515 5496 5485 5477 5466 5475 5505 5535 5563 5586 5601 5608 5602 5591 5586 5606 5626 5629 5647 5658 5657 5661 5670 5686 5704 5718 5725 5731 5724 5704 5689 5678 5672 5653 5630 5610 5586 5553 5528 5501 5484 5496 5503 5503 5500 5485 5457 5464
5517 5491 5474 5469 5499 5535 5580 5610 5618 5609 5592 5565 5532 5495 5453 5405 5364 5333 5330 5339 5352 5366 5380 5392 5404 5422 5437 5438 5454 5468 5495 5510 5515 5520 5542 5565 5583 5593 5605 5619 5639 5672 5712 5754 5806 5852 5897 5941 5988 6027 6041 6036 6027 6015 5980 5948 5933 5942 5948 5950 5954 5961 5967 5972 5976 5988 6042 6100 6167 6222 6281 6317 6321 6326 6317 6273 6217 6181 6160 6145 6136 6133 6128 6130 6133 6147 6153 6150 6141 6137 6138 6151 6172 6143 6098 6054 6018 5982 5949 5912 5870 5836 5804 5769 5735 5708 5686 5666 5649 5635 5632 5633 5628 5614 5605 5594 5587 5581 5573 5565 5545 5536 5525 5515 5513 5511 5508 5504 5501 5494 5480 5469 5453 5436 5429 5424 5427 5431 5433 5431 5414 5402 5389 5378 5367 5367 5363 5366 5379 5388 5387 5383 5370 5355 5335 5314 5294 5275 5259 5243 5231 5218 5207 5196 5189 5180 5175 5167 5167 5165 5155 5147 5144 5145 5143 5141 5140 5138 5136 5133 5131 5129 5126 5124 5122 5119 5118 5116 5114 5112 5111 5110 5107 5107 5106 5106 5106 5103 5101 5101 5101 5101 5101 5101 5101 5101 5101 5101 5101 5101 5101 5101 5101 5101 5101 5101 5101 5101 5101 5101 5101 5101 5101 5101 5101 5101 5101 5101 5101 5101 5101 5101 5101 5101 5101 5101 5101 5101 5101 5101 5101 5101 5101 5101 5101 5101 5101 5101 5101 5101 5101 5101 5101 5101 5101 5101 5101 5101 5101 5101 5101 5101 5101 5101 5101 5101 5101 5101 5101 5112 5127 5141 5148 5161 5164 5172 5179 5197 5212 5218 5214 5208 5207 5199 5195 5200 5196 5201 5205 5211 5224 5241 5257 5278 5300 5324 5346 5375 5396 5408 5412 5413 5410 5409 5410 5411 5407 5406 5406 5404 5396 5391 5380 5368 5355 5342 5328 5318 5307 5296 5290 5279 5275 5273 5271 5269 5268 5266 5266 5269 5276 5290 5303 5313 5334 5355 5367 5372 5367 5366 5367 5361 5363 5371 5367 5356 5348 5338 5330 5324 5320 5322 5318 5319 5316 5312 5310 5310 5308 5312 5313 5318 5322 5324 5324 5327 5328 5328 5331 5336 5338 5340 5345 5350 5352 5357 5363 5368 5374 5381 5388 5401 5407 5419 5425 5434 5439 5440 5438 5440 5433 5434 5434 5436 5441 5450 5465 5481 5502 5526 5555 5583 5603 5606 5598 5582 5563 5546 5535 5523 5516 5510 5508 5509 5513 5513 5513 5515 5513 5506 5502 5516 5531 5538 5539 5519 5491 5461 5449 5462 5489 5519 5533 5525 5500 5468 5450 5463 5478 5477 5465 5452 5461 5492 5524 5551 5573 5593 5615 5634 5642 5640 5639 5632 5621 5603 5589 5576 5565 5552 5545 5553 5561 5562 5555 5538 5516 5499 5488 5476 5458 5443 5424 5398 5370 5343 5335 5346 5355 5343 5340 5349 5369 5400 5414 5416 5423 5433 5439 5444 5447 5448 5446 5448 5452 5468 5472 5485 5479 5479 5468 5444 5415 5394 5401 5419 5433 5420 5431 5460 5456 5452 5453 5447 5436 5421 5406 5394 5375 5362 5355 5350 5346 5344 5351 5351 5354 5364 5372 5383 5395 5409 5424 5423 5417 5420 5430 5439 5449 5453 5466 5487 5510 5533 5559 5582 5589 5578 5549 5529 5518 5506 5505 5497 5486 5488 5521 5559 5590 5610 5627 5631 5626 5618 5634 5653 5660 5678 5685 5681 5680 5683 5684 5690 5692 5696 5693 5680 5659 5638 5635 5638 5635 5623 5608 5592 5573 5553 5526 5488 5472 5467 5469 5472 5468 5446 5442
5488 5468 5446 5443 5472 5507 5543 5555 5553 5548 5534 5511 5481 5450 5414 5368 5333 5323 5328 5344 5357 5381 5406 5428 5433 5432 5438 5454 5488 5518 5543 5559 5556 5540 5540 5551 5568 5585 5607 5633 5655 5684 5719 5759 5796 5847 5899 5947 5981 5985 5984 5976 5974 5967 5942 5921 5931 5941 5944 5946 5949 5951 5959 5968 5970 6004 6059 6119 6179 6244 6285 6294 6294 6292 6289 6257 6209 6173 6148 6133 6116 6101 6086 6078 6079 6090 6107 6120 6125 6121 6122 6128 6144 6130 6090 6051 6012 5984 5952 5921 5880 5845 5820 5785 5749 5721 5698 5671 5648 5636 5623 5614 5607 5599 5591 5581 5574 5569 5560 5553 5546 5543 5536 5534 5533 5533 5529 5525 5522 5514 5505 5494 5481 5467 5459 5457 5456 5453 5449 5442 5432 5420 5413 5401 5383 5381 5376 5383 5397 5402 5396 5385 5368 5350 5327 5307 5287 5270 5254 5237 5229 5219 5210 5199 5190 5183 5176 5168 5166 5160 5154 5152 5144 5140 5140 5138 5138 5135 5133 5132 5130 5129 5126 5124 5122 5119 5118 5117 5115 5112 5109 5109 5108 5108 5106 5107 5107 5104 5101 5101 5101 5101 5101 5101 5101 5101 5101 5101 5101 5101 5101 5101 5101 5101 5101 5101 5101 5101 5101 5101 5101 5101 5101 5101 5101 5101 5101 5101 5101 5101 5101 5101 5101 5101 5101 5101 5101 5101 5101 5101 5101 5101 5101 5101 5101 5101 5101 5101 5101 5101 5101 5101 5101 5101 5101 5101 5101 5101 5101 5101 5101 5101 5101 5101 5101 5101 5101 5101 5101 5107 5118 5131 5147 5159 5165 5174 5181 5195 5214 5223 5221 5216 5211 5205 5200 5200 5201 5202 5206 5214 5224 5234 5248 5271 5286 5304 5328 5357 5382 5394 5403 5401 5396 5395 5393 5390 5388 5393 5397 5394 5390 5386 5376 5365 5351 5337 5323 5310 5300 5288 5284 5278 5274 5272 5268 5263 5262 5261 5265 5268 5275 5290 5300 5304 5313 5329 5339 5340 5341 5338 5334 5333 5336 5334 5331 5327 5321 5316 5313 5310 5308 5307 5306 5308 5307 5306 5306 5309 5311 5315 5315 5320 5323 5328 5329 5329 5334 5331 5336 5340 5343 5344 5349 5350 5352 5357 5363 5365 5370 5377 5380 5389 5398 5403 5409 5413 5417 5423 5424 5423 5419 5422 5425 5432 5441 5451 5464 5483 5504 5528 5559 5587 5608 5615 5602 5582 5565 5550 5541 5533 5528 5526 5533 5540 5547 5552 5552 5552 5548 5537 5525 5537 5554 5561 5553 5529 5498 5477 5478 5498 5522 5550 5563 5549 5524 5493 5471 5483 5499 5501 5494 5485 5475 5487 5510 5534 5563 5585 5612 5642 5665 5672 5670 5660 5646 5631 5613 5601 5590 5577 5572 5571 5571 5564 5547 5521 5492 5469 5466 5464 5461 5457 5444 5421 5391 5352 5323 5320 5329 5318 5313 5331 5359 5378 5385 5386 5402 5426 5438 5442 5443 5437 5428 5427 5445 5450 5457 5473 5473 5467 5463 5447 5414 5380 5379 5394 5404 5394 5413 5433 5427 5442 5461 5470 5462 5443 5427 5409 5389 5367 5354 5351 5350 5348 5353 5356 5363 5367 5376 5392 5409 5431 5445 5452 5437 5428 5436 5444 5453 5462 5475 5493 5515 5539 5563 5578 5589 5589 5575 5562 5538 5533 5539 5530 5514 5498 5503 5533 5566 5592 5614 5642 5655 5655 5664 5682 5691 5698 5694 5689 5687 5686 5685 5685 5674 5662 5647 5634 5617 5593 5584 5594 5595 5598 5597 5591 5581 5569 5554 5527 5500 5472 5449 5439 5433 5423 5424
5455 5442 5423 5422 5440 5477 5508 5504 5493 5486 5474 5458 5430 5402 5370 5338 5317 5317 5327 5345 5362 5393 5429 5461 5479 5486 5486 5493 5524 5556 5582 5596 5603 5597 5578 5560 5571 5590 5609 5632 5657 5683 5711 5748 5793 5844 5896 5922 5926 5920 5918 5913 5909 5907 5905 5910 5923 5933 5938 5940 5942 5946 5955 5959 5986 6033 6085 6137 6198 6261 6275 6268 6257 6256 6260 6254 6219 6182 6153 6128 6114 6091 6067 6051 6046 6047 6065 6090 6107 6111 6111 6109 6100 6075 6056 6026 5996 5970 5945 5924 5891 5855 5827 5802 5769 5737 5710 5687 5663 5646 5630 5618 5608 5602 5594 5584 5579 5575 5569 5562 5558 5560 5558 5557 5557 5559 5554 5550 5548 5546 5542 5534 5523 5511 5503 5498 5494 5483 5475 5466 5465 5461 5453 5435 5414 5401 5402 5403 5407 5403 5395 5375 5359 5342 5318 5301 5282 5267 5253 5241 5231 5223 5214 5202 5193 5187 5176 5169 5167 5161 5155 5151 5145 5140 5137 5136 5134 5134 5133 5131 5128 5127 5126 5124 5123 5121 5120 5118 5118 5115 5109 5108 5108 5107 5106 5104 5105 5104 5106 5101 5101 5101 5101 5101 5101 5101 5101 5101 5101 5101 5101 5101 5101 5101 5101 5101 5101 5101 5101 5101 5101 5101 5101 5101 5101 5101 5101 5101 5101 5101 5101 5101 5101 5101 5101 5101 5101 5101 5101 5101 5101 5101 5101 5101 5101 5101 5101 5101 5101 5101 5101 5101 5101 5101 5101 5101 5101 5101 5101 5101 5101 5101 5101 5101 5101 5101 5101 5101 5101 5108 5114 5125 5138 5154 5163 5175 5185 5192 5203 5214 5215 5219 5219 5211 5206 5199 5198 5204 5211 5218 5219 5228 5244 5260 5277 5289 5309 5338 5363 5382 5386 5387 5387 5384 5381 5374 5375 5382 5379 5382 5382 5378 5374 5365 5353 5335 5321 5307 5295 5288 5281 5275 5270 5267 5268 5262 5260 5261 5262 5268 5278 5287 5288 5292 5298 5306 5312 5312 5312 5312 5313 5311 5310 5307 5306 5305 5304 5299 5301 5301 5300 5301 5299 5298 5300 5303 5308 5312 5315 5317 5321 5325 5327 5332 5333 5334 5337 5339 5343 5346 5351 5353 5357 5360 5363 5365 5364 5370 5372 5375 5380 5383 5386 5392 5398 5402 5409 5411 5413 5413 5414 5418 5425 5429 5438 5448 5462 5479 5502 5527 5553 5579 5605 5609 5597 5576 5561 5551 5541 5539 5538 5543 5554 5568 5582 5590 5590 5589 5581 5566 5554 5563 5574 5578 5567 5538 5509 5504 5514 5535 5559 5584 5586 5569 5544 5518 5500 5506 5516 5524 5522 5513 5503 5504 5516 5538 5561 5581 5605 5637 5669 5679 5673 5659 5647 5630 5615 5607 5600 5593 5583 5576 5568 5555 5534 5501 5470 5440 5430 5431 5440 5446 5441 5422 5396 5362 5331 5305 5294 5294 5296 5321 5327 5338 5349 5367 5394 5421 5436 5445 5434 5412 5405 5422 5433 5433 5447 5462 5457 5445 5446 5440 5408 5372 5353 5371 5379 5378 5395 5403 5395 5428 5457 5477 5471 5452 5434 5411 5390 5370 5357 5352 5352 5353 5354 5357 5366 5375 5385 5405 5428 5451 5465 5468 5453 5441 5443 5453 5461 5475 5493 5504 5512 5523 5542 5558 5584 5606 5608 5586 5564 5567 5571 5562 5545 5530 5513 5518 5541 5574 5606 5641 5669 5681 5689 5699 5695 5679 5669 5668 5678 5686 5688 5684 5673 5654 5631 5610 5583 5561 5548 5535 5539 5549 5556 5564 5564 5563 5559 5549 5535 5511 5485 5458 5419 5401 5412
5426 5417 5405 5398 5413 5445 5463 5457 5440 5428 5422 5403 5381 5354 5331 5311 5307 5313 5331 5347 5369 5407 5439 5472 5503 5527 5542 5538 5543 5562 5594 5617 5631 5646 5632 5606 5589 5602 5625 5643 5664 5691 5717 5752 5791 5833 5864 5871 5866 5852 5854 5850 5853 5867 5891 5905 5920 5926 5931 5934 5934 5941 5946 5970 6014 6066 6123 6169 6219 6248 6240 6227 6211 6208 6210 6216 6222 6206 6171 6140 6109 6069 6046 6037 6029 6028 6041 6063 6086 6096 6094 6070 6042 6014 5996 5979 5963 5949 5941 5921 5898 5857 5826 5799 5773 5745 5713 5694 5677 5666 5647 5631 5615 5605 5600 5594 5587 5581 5579 5578 5579 5582 5583 5585 5593 5595 5595 5591 5596 5599 5596 5586 5578 5571 5559 5555 5550 5538 5516 5507 5511 5513 5502 5479 5445 5421 5414 5411 5403 5389 5379 5368 5353 5329 5311 5291 5280 5269 5258 5247 5236 5226 5218 5207 5198 5188 5181 5174 5170 5164 5157 5152 5149 5144 5142 5138 5133 5133 5132 5128 5127 5124 5125 5125 5122 5120 5120 5120 5118 5114 5109 5107 5107 5106 5105 5106 5107 5108 5101 5101 5101 5101 5101 5101 5101 5101 5101 5101 5101 5101 5101 5101 5101 5101 5101 5101 5101 5101 5101 5101 5101 5101 5101 5101 5101 5101 5101 5101 5101 5101 5101 5101 5101 5101 5101 5101 5101 5101 5101 5101 5101 5101 5101 5101 5101 5101 5101 5101 5101 5101 5101 5101 5101 5101 5101 5101 5101 5101 5101 5101 5101 5101 5101 5101 5101 5101 5101 5101 5104 5110 5116 5127 5137 5147 5162 5177 5185 5194 5203 5211 5212 5214 5219 5216 5212 5210 5209 5211 5212 5218 5225 5235 5247 5262 5271 5283 5296 5314 5340 5359 5367 5376 5378 5373 5365 5356 5354 5356 5361 5366 5368 5369 5366 5363 5352 5333 5314 5300 5287 5278 5273 5269 5267 5263 5259 5257 5254 5254 5260 5265 5273 5275 5276 5276 5278 5286 5291 5293 5290 5291 5292 5296 5294 5292 5291 5292 5290 5290 5292 5292 5294 5296 5297 5299 5304 5308 5311 5313 5317 5323 5325 5330 5334 5337 5339 5340 5343 5349 5349 5353 5360 5363 5366 5371 5372 5374 5378 5380 5378 5380 5383 5388 5391 5392 5393 5395 5399 5403 5405 5407 5411 5418 5422 5425 5434 5447 5460 5475 5495 5515 5534 5556 5576 5587 5582 5564 5553 5545 5543 5543 5547 5554 5572 5590 5611 5623 5628 5624 5613 5595 5584 5589 5597 5596 5582 5557 5537 5540 5556 5574 5598 5612 5606 5584 5561 5542 5534 5536 5540 5545 5545 5539 5530 5534 5542 5553 5572 5586 5606 5634 5661 5664 5646 5631 5616 5602 5593 5591 5584 5580 5568 5553 5547 5541 5519 5488 5461 5432 5411 5400 5408 5412 5417 5408 5386 5357 5328 5302 5287 5277 5282 5294 5297 5311 5333 5356 5387 5412 5432 5437 5414 5387 5386 5406 5402 5420 5440 5448 5443 5417 5410 5418 5402 5369 5345 5350 5354 5355 5367 5367 5382 5414 5445 5462 5460 5449 5428 5405 5386 5367 5360 5357 5355 5356 5357 5359 5369 5385 5397 5423 5447 5466 5476 5469 5459 5457 5458 5461 5469 5487 5509 5525 5534 5542 5553 5564 5578 5605 5622 5614 5599 5604 5606 5591 5570 5548 5530 5532 5552 5590 5621 5651 5679 5690 5691 5683 5665 5636 5617 5620 5651 5678 5685 5683 5677 5666 5649 5629 5599 5574 5557 5536 5512 5503 5503 5507 5514 5524 5524 5524 5519 5497 5479 5448 5417 5392 5394
5403 5395 5380 5381 5390 5404 5411 5409 5402 5385 5371 5355 5340 5322 5303 5297 5308 5321 5339 5362 5386 5417 5447 5479 5516 5556 5590 5598 5596 5593 5601 5625 5651 5680 5688 5667 5641 5628 5647 5672 5693 5717 5741 5773 5795 5807 5808 5808 5810 5808 5814 5828 5841 5862 5876 5888 5901 5908 5919 5925 5926 5936 5953 5997 6043 6093 6142 6190 6211 6212 6193 6173 6160 6153 6148 6154 6173 6204 6200 6167 6112 6057 6029 6028 6022 6026 6031 6035 6055 6064 6058 6025 5976 5954 5936 5927 5920 5920 5919 5910 5889 5848 5806 5784 5762 5740 5717 5699 5683 5673 5657 5646 5629 5616 5612 5610 5607 5601 5603 5607 5611 5616 5622 5633 5639 5639 5652 5657 5660 5658 5654 5648 5639 5633 5624 5620 5613 5593 5559 5549 5562 5564 5548 5526 5480 5437 5419 5410 5404 5391 5372 5356 5345 5329 5313 5298 5284 5273 5262 5247 5238 5230 5219 5210 5200 5194 5185 5177 5172 5165 5159 5154 5153 5150 5146 5143 5140 5141 5133 5129 5127 5125 5123 5122 5120 5119 5118 5115 5114 5112 5110 5108 5107 5106 5103 5106 5109 5110 5101 5101 5101 5101 5101 5101 5101 5101 5101 5101 5101 5101 5101 5101 5101 5101 5101 5101 5101 5101 5101 5101 5101 5101 5101 5101 5101 5101 5101 5101 5101 5101 5101 5101 5101 5101 5101 5101 5101 5101 5101 5101 5101 5101 5101 5101 5101 5101 5101 5101 5101 5101 5101 5101 5101 5101 5101 5101 5101 5101 5101 5101 5101 5101 5101 5101 5101 5101 5101 5103 5110 5116 5126 5136 5144 5153 5166 5178 5186 5193 5201 5207 5210 5216 5224 5227 5222 5213 5211 5213 5214 5214 5225 5233 5251 5265 5278 5292 5299 5307 5317 5331 5346 5359 5362 5360 5353 5341 5336 5338 5342 5345 5347 5351 5352 5349 5341 5328 5308 5289 5278 5274 5270 5266 5262 5257 5257 5254 5255 5255 5255 5262 5265 5268 5269 5269 5270 5270 5272 5277 5277 5279 5280 5284 5282 5283 5282 5284 5285 5288 5289 5289 5293 5294 5299 5301 5304 5309 5313 5317 5322 5326 5330 5335 5338 5342 5344 5345 5349 5353 5357 5359 5366 5371 5374 5379 5382 5385 5388 5391 5391 5393 5395 5395 5397 5398 5401 5397 5398 5401 5402 5405 5409 5413 5421 5426 5434 5443 5454 5464 5480 5498 5512 5529 5543 5554 5554 5547 5544 5542 5539 5544 5551 5561 5576 5599 5622 5645 5655 5652 5640 5624 5615 5615 5618 5614 5602 5583 5572 5577 5594 5615 5626 5628 5614 5597 5577 5564 5558 5557 5556 5561 5565 5561 5556 5557 5563 5574 5583 5596 5615 5641 5656 5645 5620 5601 5579 5566 5556 5552 5550 5547 5532 5510 5505 5514 5511 5489 5459 5430 5407 5387 5375 5378 5386 5391 5378 5351 5325 5300 5280 5266 5259 5271 5287 5314 5339 5359 5386 5416 5437 5428 5396 5367 5375 5380 5373 5398 5424 5440 5431 5402 5382 5396 5393 5361 5328 5321 5331 5339 5352 5352 5376 5409 5434 5435 5436 5430 5413 5397 5385 5372 5363 5363 5360 5359 5362 5361 5367 5385 5414 5438 5458 5472 5472 5472 5476 5477 5482 5484 5483 5491 5513 5531 5549 5563 5577 5590 5596 5613 5642 5645 5638 5637 5633 5612 5585 5556 5550 5556 5558 5590 5629 5660 5686 5686 5667 5650 5629 5603 5576 5592 5630 5660 5678 5682 5678 5671 5655 5644 5624 5604 5589 5572 5546 5520 5509 5493 5483 5474 5466 5471 5470 5445 5427 5405 5386 5374 5375
5367 5361 5360 5366 5368 5365 5369 5372 5368 5354 5341 5323 5310 5295 5292 5294 5310 5332 5355 5380 5401 5432 5467 5497 5536 5581 5614 5635 5641 5635 5641 5650 5671 5701 5722 5712 5694 5682 5683 5699 5719 5743 5757 5756 5752 5749 5754 5770 5786 5800 5818 5834 5846 5858 5869 5880 5890 5899 5905 5908 5914 5942 5988 6031 6078 6126 6163 6182 6182 6168 6139 6122 6108 6102 6096 6096 6117 6170 6198 6155 6098 6051 6023 6019 6014 6013 6015 6013 6012 6012 6004 5974 5937 5903 5877 5869 5876 5875 5877 5877 5862 5822 5788 5773 5761 5735 5713 5700 5684 5668 5656 5649 5641 5636 5635 5637 5640 5639 5641 5648 5658 5666 5677 5684 5688 5687 5706 5720 5726 5728 5720 5704 5699 5698 5691 5684 5671 5644 5609 5597 5609 5611 5586 5554 5511 5463 5432 5418 5409 5389 5373 5359 5346 5334 5315 5302 5288 5277 5264 5251 5240 5229 5218 5211 5204 5196 5190 5183 5176 5172 5166 5161 5158 5154 5150 5150 5145 5142 5141 5136 5134 5128 5126 5121 5120 5120 5118 5114 5114 5112 5109 5108 5107 5107 5104 5106 5108 5108 5101 5101 5101 5101 5101 5101 5101 5101 5101 5101 5101 5101 5101 5101 5101 5101 5101 5101 5101 5101 5101 5101 5101 5101 5101 5101 5101 5101 5101 5101 5101 5101 5101 5101 5101 5101 5101 5101 5101 5101 5101 5101 5101 5101 5101 5101 5101 5101 5101 5101 5101 5101 5101 5101 5101 5101 5101 5101 5101 5101 5101 5101 5101 5101 5101 5101 5101 5101 5102 5107 5115 5125 5134 5146 5156 5167 5180 5188 5193 5194 5204 5211 5215 5221 5228 5232 5230 5227 5222 5221 5224 5223 5228 5235 5253 5266 5284 5300 5309 5313 5319 5326 5334 5342 5347 5348 5342 5336 5326 5318 5326 5329 5325 5329 5331 5327 5318 5306 5293 5283 5271 5267 5264 5263 5256 5251 5253 5257 5257 5256 5255 5255 5260 5262 5263 5264 5266 5268 5271 5271 5270 5272 5275 5277 5279 5281 5282 5285 5287 5291 5292 5297 5298 5303 5306 5308 5312 5314 5318 5324 5329 5334 5337 5340 5344 5347 5349 5350 5354 5358 5362 5365 5377 5383 5389 5395 5397 5397 5397 5401 5403 5405 5406 5405 5406 5406 5405 5408 5409 5408 5407 5409 5411 5413 5417 5425 5430 5440 5448 5458 5467 5480 5492 5501 5514 5522 5524 5527 5528 5534 5537 5545 5553 5563 5574 5596 5624 5652 5672 5676 5664 5650 5638 5631 5627 5621 5613 5606 5603 5610 5623 5640 5642 5636 5621 5605 5584 5572 5567 5563 5561 5565 5569 5569 5569 5578 5591 5600 5608 5620 5635 5649 5654 5633 5605 5584 5567 5544 5522 5512 5505 5499 5488 5468 5472 5487 5494 5479 5460 5443 5420 5397 5375 5357 5354 5365 5373 5360 5330 5301 5274 5257 5247 5266 5287 5298 5319 5344 5383 5420 5436 5419 5385 5350 5353 5351 5357 5385 5414 5420 5409 5385 5358 5360 5369 5349 5320 5309 5314 5323 5323 5340 5375 5411 5430 5422 5421 5414 5403 5395 5384 5376 5371 5370 5368 5365 5364 5369 5375 5391 5422 5448 5461 5470 5476 5485 5493 5502 5512 5517 5512 5501 5509 5522 5544 5559 5576 5599 5619 5638 5666 5683 5679 5669 5647 5616 5586 5572 5570 5576 5573 5593 5630 5663 5680 5668 5647 5622 5599 5575 5550 5561 5594 5627 5657 5672 5675 5672 5661 5647 5640 5627 5611 5587 5568 5552 5545 5533 5515 5490 5458 5435 5430 5416 5410 5404 5399 5383 5361
5343 5339 5339 5342 5340 5338 5340 5346 5338 5322 5310 5295 5284 5276 5285 5306 5332 5354 5375 5399 5427 5447 5478 5513 5555 5592 5613 5626 5642 5642 5648 5656 5675 5690 5690 5685 5687 5692 5703 5721 5734 5740 5731 5717 5710 5721 5747 5774 5795 5809 5825 5838 5851 5859 5864 5876 5881 5891 5899 5907 5928 5971 6019 6061 6108 6134 6151 6147 6144 6125 6096 6074 6064 6054 6058 6061 6088 6147 6178 6145 6091 6055 6028 6013 6010 6001 5994 5986 5983 5968 5958 5946 5922 5897 5879 5874 5863 5842 5830 5827 5827 5810 5796 5786 5768 5738 5719 5712 5696 5683 5667 5656 5656 5663 5668 5676 5679 5685 5692 5708 5716 5723 5732 5736 5733 5727 5749 5780 5789 5789 5782 5770 5764 5758 5754 5748 5726 5695 5661 5649 5655 5645 5605 5572 5523 5473 5445 5427 5414 5398 5383 5368 5359 5344 5326 5311 5294 5279 5264 5252 5241 5231 5223 5215 5207 5201 5195 5189 5182 5178 5172 5165 5162 5159 5154 5153 5151 5146 5143 5141 5138 5136 5132 5129 5127 5126 5123 5118 5117 5113 5109 5107 5106 5105 5103 5102 5103 5106 5101 5101 5101 5101 5101 5101 5101 5101 5101 5101 5101 5101 5101 5101 5101 5101 5101 5101 5101 5101 5101 5101 5101 5101 5101 5101 5101 5101 5101 5101 5101 5101 5101 5101 5101 5101 5101 5101 5101 5101 5101 5101 5101 5101 5101 5101 5101 5101 5101 5101 5101 5101 5101 5101 5101 5101 5101 5101 5101 5101 5101 5101 5101 5101 5101 5101 5101 5101 5104 5110 5120 5132 5146 5158 5169 5183 5198 5198 5201 5205 5210 5214 5222 5231 5237 5243 5247 5245 5235 5232 5237 5234 5236 5242 5249 5265 5282 5300 5317 5322 5323 5326 5330 5330 5334 5337 5334 5328 5317 5304 5309 5313 5311 5312 5307 5304 5296 5285 5277 5273 5264 5262 5260 5258 5249 5249 5248 5250 5255 5254 5257 5256 5258 5260 5261 5262 5264 5267 5268 5269 5270 5275 5277 5278 5281 5285 5287 5290 5293 5296 5299 5304 5309 5313 5320 5322 5326 5323 5328 5331 5334 5338 5343 5347 5350 5354 5359 5361 5360 5364 5370 5381 5391 5397 5405 5412 5415 5416 5414 5417 5418 5419 5419 5417 5417 5418 5419 5420 5419 5420 5416 5417 5416 5417 5420 5423 5427 5432 5440 5449 5455 5462 5475 5483 5488 5496 5504 5511 5518 5525 5533 5548 5559 5572 5579 5597 5622 5649 5672 5682 5679 5660 5642 5626 5615 5607 5601 5609 5618 5626 5632 5644 5641 5627 5611 5597 5582 5569 5562 5553 5549 5549 5552 5556 5563 5578 5601 5621 5631 5641 5650 5654 5650 5629 5598 5578 5563 5537 5504 5479 5467 5455 5448 5430 5438 5457 5463 5454 5443 5432 5419 5403 5386 5359 5337 5339 5356 5358 5332 5305 5275 5250 5241 5253 5276 5298 5328 5356 5394 5424 5429 5407 5373 5343 5326 5330 5344 5373 5393 5404 5400 5378 5344 5335 5339 5326 5306 5297 5298 5305 5325 5349 5381 5412 5420 5411 5408 5407 5400 5393 5386 5382 5378 5376 5373 5371 5372 5373 5376 5398 5423 5441 5448 5457 5472 5490 5512 5529 5540 5547 5544 5528 5517 5527 5539 5557 5569 5590 5621 5657 5691 5712 5705 5683 5654 5616 5596 5594 5595 5597 5597 5602 5632 5659 5665 5653 5636 5614 5589 5565 5537 5528 5555 5588 5623 5644 5659 5667 5662 5652 5646 5635 5624 5603 5588 5577 5569 5560 5539 5517 5485 5465 5458 5452 5450 5453 5446 5425 5399
5321 5320 5319 5322 5315 5315 5319 5322 5310 5290 5279 5274 5273 5279 5305 5334 5359 5379 5402 5419 5443 5463 5485 5514 5542 5561 5575 5590 5606 5608 5620 5628 5639 5646 5648 5651 5665 5682 5711 5741 5747 5724 5702 5694 5698 5714 5742 5773 5791 5805 5817 5827 5846 5849 5858 5871 5878 5884 5901 5926 5964 6004 6047 6092 6114 6107 6110 6108 6104 6090 6065 6041 6035 6040 6049 6060 6082 6136 6168 6134 6081 6056 6036 6014 6004 5997 5986 5972 5964 5953 5942 5929 5913 5902 5888 5864 5835 5811 5803 5792 5782 5772 5762 5758 5751 5737 5719 5714 5702 5684 5666 5663 5678 5693 5705 5715 5727 5742 5756 5768 5774 5787 5796 5790 5778 5768 5788 5825 5853 5860 5843 5832 5823 5823 5813 5800 5778 5743 5710 5691 5676 5647 5613 5577 5523 5481 5459 5441 5426 5412 5400 5381 5366 5351 5336 5316 5299 5282 5268 5255 5248 5240 5233 5224 5217 5208 5200 5193 5188 5181 5180 5172 5171 5166 5161 5158 5156 5149 5145 5145 5143 5140 5138 5136 5134 5131 5127 5120 5120 5116 5111 5108 5107 5105 5105 5102 5102 5105 5105 5101 5101 5101 5101 5101 5101 5101 5101 5101 5101 5101 5101 5101 5101 5101 5101 5101 5101 5101 5101 5101 5101 5101 5101 5101 5101 5101 5101 5101 5101 5101 5101 5101 5101 5101 5101 5101 5101 5101 5101 5101 5101 5101 5101 5101 5101 5101 5101 5101 5101 5101 5101 5101 5101 5101 5101 5101 5101 5101 5101 5101 5101 5101 5101 5101 5101 5101 5104 5107 5122 5138 5155 5168 5181 5197 5209 5209 5213 5218 5221 5224 5231 5235 5241 5248 5256 5259 5246 5244 5247 5248 5243 5248 5258 5268 5281 5296 5315 5326 5327 5327 5326 5324 5323 5327 5326 5321 5307 5295 5295 5296 5295 5293 5288 5282 5281 5272 5265 5259 5253 5252 5250 5253 5247 5245 5250 5251 5249 5250 5252 5255 5257 5259 5260 5262 5265 5268 5271 5274 5276 5278 5282 5284 5287 5291 5296 5300 5303 5305 5307 5311 5318 5322 5327 5332 5335 5336 5336 5338 5340 5344 5350 5357 5359 5362 5364 5366 5369 5368 5376 5394 5408 5417 5425 5434 5442 5442 5440 5441 5442 5439 5436 5436 5431 5430 5431 5431 5428 5427 5426 5425 5425 5425 5425 5425 5427 5433 5441 5447 5453 5459 5466 5472 5480 5490 5497 5504 5516 5531 5544 5559 5572 5584 5593 5605 5620 5639 5661 5670 5665 5645 5621 5597 5579 5562 5560 5579 5604 5622 5622 5615 5605 5597 5586 5573 5563 5553 5540 5525 5517 5514 5520 5526 5537 5558 5586 5613 5637 5656 5666 5665 5650 5628 5598 5575 5561 5541 5515 5482 5450 5424 5413 5401 5405 5422 5423 5417 5407 5406 5403 5391 5380 5355 5336 5322 5329 5350 5348 5320 5283 5254 5237 5246 5280 5313 5345 5375 5410 5428 5420 5389 5355 5327 5303 5313 5345 5367 5390 5394 5384 5364 5336 5314 5313 5302 5286 5283 5291 5313 5344 5376 5407 5425 5423 5415 5413 5410 5408 5398 5390 5388 5386 5385 5385 5380 5376 5374 5377 5390 5409 5417 5426 5441 5468 5496 5526 5552 5568 5577 5571 5556 5538 5542 5556 5576 5593 5605 5634 5670 5712 5729 5713 5684 5656 5628 5617 5616 5619 5619 5619 5620 5642 5661 5660 5644 5623 5604 5584 5569 5541 5509 5517 5552 5582 5605 5628 5655 5658 5651 5648 5634 5627 5613 5603 5592 5585 5571 5555 5534 5518 5506 5501 5502 5498 5495 5483 5465 5443
5305 5301 5300 5300 5294 5293 5292 5295 5284 5269 5263 5264 5275 5301 5328 5352 5380 5412 5433 5449 5460 5469 5487 5506 5521 5535 5546 5565 5574 5585 5595 5603 5609 5617 5627 5645 5670 5696 5724 5744 5734 5705 5690 5684 5679 5691 5726 5755 5775 5791 5808 5822 5839 5848 5857 5872 5886 5905 5936 5969 6006 6043 6085 6105 6088 6069 6068 6065 6062 6056 6041 6031 6025 6028 6039 6057 6094 6141 6171 6125 6082 6051 6038 6022 6001 5988 5973 5961 5952 5949 5941 5923 5904 5884 5855 5824 5803 5785 5779 5771 5762 5747 5732 5730 5722 5716 5708 5706 5696 5680 5668 5681 5701 5726 5740 5754 5773 5797 5817 5828 5843 5854 5858 5844 5824 5811 5823 5863 5898 5921 5912 5896 5884 5885 5878 5860 5828 5789 5746 5706 5667 5628 5594 5550 5524 5489 5473 5460 5444 5427 5412 5392 5375 5358 5341 5321 5305 5286 5277 5266 5257 5251 5241 5231 5225 5216 5206 5199 5195 5187 5186 5181 5179 5174 5166 5164 5160 5156 5152 5149 5150 5147 5145 5143 5141 5138 5133 5129 5126 5122 5120 5116 5112 5111 5108 5102 5102 5105 5105 5101 5101 5101 5101 5101 5101 5101 5101 5101 5101 5101 5101 5101 5101 5101 5101 5101 5101 5101 5101 5101 5101 5101 5101 5101 5101 5101 5101 5101 5101 5101 5101 5101 5101 5101 5101 5101 5101 5101 5101 5101 5101 5101 5101 5101 5101 5101 5101 5101 5101 5101 5101 5101 5101 5101 5101 5101 5101 5101 5101 5101 5101 5101 5101 5101 5101 5101 5101 5109 5123 5143 5160 5172 5187 5202 5212 5217 5223 5231 5233 5236 5239 5242 5250 5255 5262 5264 5254 5258 5257 5252 5252 5259 5265 5275 5288 5302 5315 5325 5325 5325 5321 5318 5316 5313 5312 5310 5300 5294 5285 5283 5279 5277 5273 5267 5264 5258 5254 5249 5245 5244 5245 5242 5243 5247 5251 5249 5248 5251 5253 5256 5255 5258 5263 5267 5269 5271 5275 5280 5284 5283 5289 5292 5294 5300 5307 5311 5313 5315 5316 5319 5329 5332 5339 5345 5350 5349 5350 5350 5355 5356 5358 5366 5371 5372 5371 5375 5379 5378 5380 5398 5418 5436 5452 5464 5472 5474 5473 5474 5473 5467 5466 5460 5456 5451 5448 5447 5444 5441 5439 5437 5434 5433 5431 5427 5430 5436 5444 5445 5453 5461 5469 5475 5482 5491 5500 5512 5525 5540 5558 5576 5590 5601 5604 5609 5611 5616 5628 5638 5632 5616 5593 5563 5536 5517 5519 5552 5582 5600 5598 5579 5558 5548 5544 5539 5531 5519 5503 5486 5480 5480 5488 5500 5514 5534 5561 5594 5625 5656 5675 5671 5652 5624 5598 5577 5561 5546 5527 5494 5457 5421 5394 5376 5372 5380 5383 5376 5369 5368 5376 5382 5379 5360 5344 5322 5309 5328 5345 5327 5293 5259 5231 5238 5273 5312 5347 5378 5410 5427 5413 5369 5340 5306 5287 5309 5342 5368 5383 5373 5356 5337 5327 5302 5286 5279 5265 5270 5295 5330 5371 5404 5426 5441 5437 5427 5420 5420 5418 5413 5411 5407 5397 5395 5397 5395 5382 5376 5381 5384 5398 5407 5418 5435 5465 5497 5527 5553 5568 5579 5586 5571 5553 5561 5573 5590 5613 5631 5652 5683 5722 5726 5708 5682 5658 5642 5635 5634 5635 5635 5640 5644 5656 5665 5654 5632 5609 5590 5569 5561 5548 5514 5495 5513 5540 5570 5607 5643 5655 5652 5647 5635 5627 5616 5606 5597 5588 5580 5569 5560 5550 5540 5538 5537 5534 5527 5514 5497 5475
5274 5276 5274 5270 5257 5258 5262 5261 5259 5260 5263 5272 5300 5331 5355 5382 5399 5422 5449 5473 5489 5494 5502 5509 5520 5531 5541 5554 5565 5571 5578 5583 5595 5606 5624 5647 5673 5705 5738 5749 5716 5688 5677 5669 5674 5691 5729 5763 5794 5819 5840 5855 5870 5883 5892 5909 5928 5951 5978 6014 6048 6074 6082 6071 6051 6027 6020 6019 6014 6026 6027 6017 6011 6012 6019 6055 6105 6159 6197 6171 6116 6077 6058 6040 6013 5989 5965 5949 5941 5936 5927 5913 5896 5866 5836 5818 5812 5792 5773 5763 5756 5745 5733 5720 5716 5712 5709 5701 5692 5684 5687 5708 5736 5763 5775 5801 5828 5846 5873 5890 5902 5917 5916 5902 5879 5859 5858 5891 5930 5964 5970 5959 5944 5939 5926 5902 5868 5824 5776 5726 5678 5639 5604 5570 5536 5516 5499 5483 5461 5442 5423 5402 5387 5368 5346 5325 5307 5295 5287 5279 5271 5262 5252 5243 5234 5225 5214 5208 5202 5196 5191 5187 5183 5179 5174 5170 5165 5163 5160 5159 5157 5155 5156 5152 5148 5144 5139 5135 5135 5132 5128 5122 5119 5114 5109 5104 5104 5103 5103 5101 5101 5101 5101 5101 5101 5101 5101 5101 5101 5101 5101 5101 5101 5101 5101 5101 5101 5101 5101 5101 5101 5101 5101 5101 5101 5101 5101 5101 5101 5101 5101 5101 5101 5101 5101 5101 5101 5101 5101 5101 5101 5101 5101 5101 5101 5101 5101 5101 5101 5101 5101 5101 5101 5101 5101 5101 5101 5101 5101 5101 5101 5101 5101 5101 5101 5101 5101 5108 5123 5142 5159 5173 5185 5196 5204 5208 5210 5224 5238 5244 5244 5244 5254 5260 5263 5264 5265 5266 5263 5258 5260 5266 5273 5287 5305 5318 5323 5325 5324 5323 5318 5314 5309 5302 5298 5299 5294 5286 5276 5273 5268 5267 5265 5264 5256 5253 5250 5244 5242 5240 5242 5243 5243 5246 5249 5248 5252 5252 5253 5256 5261 5264 5269 5272 5274 5280 5282 5286 5289 5290 5296 5303 5304 5311 5317 5319 5325 5328 5328 5327 5335 5348 5353 5356 5362 5365 5363 5367 5373 5377 5378 5377 5380 5383 5382 5388 5387 5382 5382 5393 5413 5440 5461 5482 5499 5507 5509 5508 5506 5502 5499 5491 5487 5482 5477 5472 5463 5459 5455 5452 5444 5440 5438 5433 5434 5438 5444 5450 5459 5466 5474 5482 5491 5500 5509 5523 5540 5560 5578 5595 5610 5616 5616 5605 5593 5586 5594 5600 5596 5582 5561 5535 5501 5475 5485 5519 5550 5565 5567 5551 5525 5504 5500 5498 5492 5476 5460 5442 5448 5461 5476 5489 5505 5525 5546 5577 5609 5646 5668 5661 5637 5609 5587 5567 5554 5539 5519 5497 5461 5427 5391 5366 5348 5344 5343 5339 5331 5332 5345 5366 5381 5378 5367 5333 5301 5299 5316 5317 5289 5255 5229 5227 5259 5294 5329 5365 5393 5403 5390 5355 5321 5290 5277 5299 5331 5354 5362 5351 5324 5312 5305 5292 5270 5265 5258 5273 5306 5347 5384 5421 5442 5456 5457 5448 5441 5437 5437 5438 5438 5430 5422 5415 5410 5403 5394 5387 5384 5386 5396 5409 5421 5432 5448 5480 5500 5521 5537 5548 5569 5578 5570 5582 5597 5610 5631 5659 5682 5703 5720 5709 5692 5674 5653 5639 5633 5630 5631 5634 5645 5655 5662 5662 5651 5624 5597 5582 5563 5534 5533 5509 5486 5494 5527 5569 5608 5639 5652 5651 5645 5639 5624 5610 5602 5597 5595 5589 5583 5579 5573 5567 5568 5566 5562 5551 5537 5519 5498
5244 5246 5246 5243 5237 5239 5245 5249 5252 5261 5277 5299 5324 5358 5388 5416 5440 5454 5468 5497 5523 5525 5535 5542 5547 5547 5551 5562 5554 5554 5566 5577 5591 5606 5627 5649 5677 5709 5737 5729 5691 5667 5661 5664 5686 5724 5758 5795 5826 5852 5875 5892 5916 5930 5938 5951 5976 5999 6024 6054 6074 6066 6046 6030 6007 5985 5965 5962 5974 5990 5998 5996 5996 5996 6002 6042 6100 6153 6185 6190 6158 6125 6096 6067 6039 6012 5982 5951 5930 5924 5912 5902 5891 5866 5842 5828 5817 5803 5785 5769 5760 5753 5740 5729 5728 5724 5718 5716 5708 5708 5727 5749 5774 5802 5821 5851 5882 5895 5914 5944 5965 5983 5973 5956 5941 5913 5899 5917 5954 5992 6013 6008 5994 5984 5967 5934 5891 5839 5791 5746 5699 5665 5635 5598 5564 5538 5526 5505 5481 5457 5433 5416 5399 5380 5359 5337 5318 5308 5301 5293 5284 5275 5264 5253 5243 5233 5222 5213 5207 5203 5199 5195 5190 5183 5180 5178 5172 5171 5170 5168 5164 5163 5160 5160 5155 5151 5148 5146 5144 5139 5135 5127 5123 5119 5114 5110 5105 5104 5104 5101 5101 5101 5101 5101 5101 5101 5101 5101 5101 5101 5101 5101 5101 5101 5101 5101 5101 5101 5101 5101 5101 5101 5101 5101 5101 5101 5101 5101 5101 5101 5101 5101 5101 5101 5101 5101 5101 5101 5101 5101 5101 5101 5101 5101 5101 5101 5101 5101 5101 5101 5101 5101 5101 5101 5101 5101 5101 5101 5101 5101 5101 5101 5101 5101 5101 5101 5101 5106 5120 5139 5155 5170 5180 5188 5191 5189 5195 5208 5234 5247 5249 5251 5254 5264 5269 5272 5272 5269 5270 5266 5266 5273 5285 5300 5315 5331 5332 5328 5320 5315 5310 5304 5302 5297 5291 5285 5283 5281 5274 5268 5262 5258 5252 5252 5250 5245 5242 5241 5240 5237 5241 5241 5243 5246 5249 5250 5253 5254 5256 5260 5266 5272 5275 5276 5279 5286 5291 5294 5299 5297 5304 5310 5317 5319 5325 5332 5336 5340 5345 5347 5347 5353 5362 5369 5373 5377 5380 5390 5397 5406 5402 5400 5398 5396 5397 5397 5397 5394 5388 5394 5408 5432 5459 5486 5515 5529 5537 5541 5540 5537 5533 5528 5521 5515 5509 5500 5489 5484 5476 5468 5460 5453 5447 5443 5441 5442 5444 5452 5464 5471 5480 5491 5499 5513 5526 5543 5563 5588 5607 5627 5636 5635 5622 5601 5578 5558 5557 5563 5563 5551 5528 5504 5471 5441 5454 5484 5509 5529 5534 5523 5500 5473 5454 5453 5449 5432 5416 5425 5458 5481 5493 5504 5515 5528 5544 5570 5605 5637 5654 5644 5619 5593 5570 5551 5529 5516 5503 5496 5471 5438 5398 5367 5343 5325 5318 5311 5304 5306 5325 5355 5379 5387 5376 5343 5307 5281 5280 5287 5278 5250 5224 5219 5249 5281 5319 5351 5365 5370 5369 5347 5310 5276 5259 5281 5307 5333 5340 5323 5299 5279 5273 5265 5253 5249 5257 5283 5318 5348 5397 5437 5465 5480 5480 5477 5470 5462 5462 5466 5468 5467 5457 5441 5429 5421 5406 5395 5389 5390 5395 5418 5439 5458 5468 5468 5475 5488 5506 5523 5551 5575 5588 5601 5623 5642 5658 5681 5697 5701 5696 5690 5673 5651 5634 5618 5616 5616 5620 5628 5646 5659 5671 5670 5655 5629 5602 5578 5546 5510 5503 5487 5470 5495 5533 5572 5603 5624 5639 5643 5644 5632 5610 5586 5573 5582 5593 5595 5595 5593 5589 5588 5588 5586 5584 5575 5560 5540 5520
5218 5224 5225 5228 5235 5242 5252 5261 5267 5280 5298 5321 5352 5388 5423 5455 5486 5510 5517 5518 5536 5557 5570 5574 5570 5569 5564 5555 5543 5550 5558 5573 5591 5609 5630 5652 5681 5711 5729 5703 5666 5652 5652 5674 5714 5758 5792 5810 5824 5856 5898 5934 5960 5979 5988 5995 6013 6032 6053 6069 6049 6026 5999 5979 5960 5943 5923 5912 5926 5937 5961 5971 5977 5976 5986 6036 6096 6156 6177 6191 6179 6159 6130 6095 6061 6031 6000 5971 5944 5922 5906 5895 5884 5865 5850 5838 5827 5811 5796 5787 5778 5770 5757 5751 5747 5742 5734 5730 5736 5758 5782 5805 5832 5850 5863 5891 5929 5953 5958 5984 6021 6041 6040 6018 5997 5967 5947 5943 5970 6010 6042 6052 6038 6020 5994 5956 5910 5861 5820 5777 5739 5699 5667 5638 5594 5569 5555 5531 5504 5479 5451 5431 5413 5395 5373 5349 5332 5324 5316 5307 5297 5287 5275 5263 5251 5241 5230 5223 5215 5210 5207 5202 5196 5189 5186 5182 5180 5179 5177 5175 5174 5172 5169 5167 5163 5159 5159 5157 5152 5149 5146 5139 5132 5125 5117 5114 5109 5105 5105 5103 5101 5101 5101 5101 5101 5101 5101 5101 5101 5101 5101 5101 5101 5101 5101 5101 5101 5101 5101 5101 5101 5101 5101 5101 5101 5101 5101 5101 5101 5101 5101 5101 5101 5101 5101 5101 5101 5101 5101 5101 5101 5101 5101 5101 5101 5101 5101 5101 5101 5101 5101 5101 5101 5101 5101 5101 5101 5101 5101 5101 5101 5101 5101 5101 5101 5101 5101 5107 5114 5130 5146 5162 5177 5183 5186 5185 5189 5203 5221 5237 5240 5240 5247 5259 5271 5275 5280 5279 5279 5276 5273 5276 5291 5302 5312 5320 5323 5318 5312 5306 5304 5299 5299 5292 5283 5277 5274 5278 5273 5262 5256 5253 5251 5244 5240 5238 5234 5234 5239 5238 5241 5241 5241 5247 5249 5253 5256 5258 5264 5265 5268 5277 5281 5282 5288 5293 5294 5302 5309 5308 5312 5318 5326 5328 5332 5341 5348 5353 5359 5368 5375 5379 5384 5388 5388 5396 5405 5414 5425 5432 5432 5425 5417 5410 5409 5407 5409 5409 5401 5398 5410 5432 5456 5486 5517 5538 5552 5561 5566 5566 5565 5561 5555 5549 5541 5531 5520 5513 5498 5489 5478 5470 5462 5454 5447 5447 5448 5456 5463 5476 5486 5497 5511 5527 5544 5564 5588 5613 5635 5652 5659 5651 5629 5599 5569 5535 5523 5531 5536 5529 5508 5477 5445 5414 5418 5440 5465 5489 5498 5495 5479 5456 5429 5410 5402 5392 5404 5434 5468 5492 5509 5519 5526 5540 5555 5579 5613 5643 5652 5634 5608 5577 5548 5527 5507 5494 5476 5471 5465 5443 5410 5379 5349 5322 5303 5297 5293 5291 5311 5338 5365 5378 5372 5350 5317 5285 5261 5252 5253 5241 5217 5207 5226 5264 5294 5314 5319 5326 5342 5338 5312 5278 5247 5255 5289 5309 5310 5296 5275 5254 5246 5242 5236 5238 5251 5292 5324 5362 5405 5445 5472 5493 5499 5500 5496 5487 5489 5496 5501 5500 5489 5472 5463 5447 5424 5410 5399 5394 5398 5423 5452 5479 5501 5506 5498 5496 5517 5531 5546 5577 5608 5622 5642 5667 5687 5694 5688 5678 5675 5667 5650 5632 5614 5601 5596 5604 5615 5636 5660 5673 5680 5679 5670 5644 5617 5583 5548 5514 5485 5467 5463 5492 5525 5557 5580 5598 5615 5624 5620 5601 5574 5546 5533 5548 5579 5594 5600 5602 5604 5602 5601 5596 5595 5588 5576 5562 5545
5220 5223 5226 5231 5240 5245 5258 5272 5279 5295 5322 5351 5377 5417 5454 5497 5535 5565 5572 5563 5561 5584 5592 5580 5567 5556 5551 5540 5534 5544 5562 5582 5601 5623 5648 5668 5691 5720 5722 5688 5655 5640 5650 5676 5715 5762 5797 5799 5812 5857 5905 5956 5995 6014 6018 6010 6012 6010 6017 6029 6012 5979 5951 5933 5910 5889 5874 5870 5869 5893 5928 5948 5956 5959 5987 6049 6102 6147 6172 6195 6191 6174 6149 6117 6082 6048 6017 5989 5970 5951 5935 5917 5904 5887 5875 5861 5844 5827 5813 5803 5794 5786 5776 5769 5762 5758 5761 5767 5787 5813 5838 5865 5893 5907 5907 5920 5963 6001 6008 6021 6057 6098 6105 6074 6045 6014 5990 5979 5988 6016 6056 6082 6077 6055 6026 5983 5936 5891 5849 5808 5769 5728 5704 5671 5628 5601 5586 5554 5529 5500 5471 5447 5423 5404 5383 5362 5348 5338 5328 5319 5309 5296 5282 5271 5259 5246 5236 5228 5224 5218 5213 5206 5202 5197 5194 5192 5191 5188 5185 5182 5182 5181 5179 5175 5174 5172 5170 5166 5165 5158 5151 5145 5139 5134 5128 5120 5113 5110 5106 5106 5110 5101 5101 5101 5101 5101 5101 5101 5101 5101 5101 5101 5101 5101 5101 5101 5101 5101 5101 5101 5101 5101 5101 5101 5101 5101 5101 5101 5101 5101 5101 5101 5101 5101 5101 5101 5101 5101 5101 5101 5101 5101 5101 5101 5101 5101 5101 5101 5101 5101 5101 5101 5101 5101 5101 5101 5101 5101 5101 5101 5101 5101 5101 5101 5101 5101 5101 5101 5111 5125 5139 5151 5167 5179 5184 5182 5186 5201 5214 5219 5214 5220 5232 5246 5256 5267 5276 5283 5288 5286 5281 5279 5290 5298 5306 5310 5311 5311 5304 5301 5295 5291 5290 5286 5282 5271 5267 5271 5269 5261 5251 5249 5246 5242 5239 5234 5233 5234 5237 5238 5239 5242 5245 5245 5249 5252 5255 5261 5267 5272 5272 5278 5285 5293 5296 5299 5303 5307 5315 5323 5325 5330 5337 5342 5348 5357 5366 5372 5385 5396 5403 5409 5414 5416 5412 5417 5427 5441 5454 5463 5463 5453 5438 5428 5425 5419 5419 5422 5417 5410 5413 5431 5455 5480 5508 5530 5545 5559 5571 5575 5579 5585 5587 5582 5574 5562 5554 5542 5528 5518 5502 5490 5477 5467 5458 5453 5452 5456 5467 5480 5492 5502 5519 5539 5559 5581 5603 5632 5661 5673 5671 5654 5629 5596 5563 5523 5494 5497 5503 5503 5497 5468 5436 5404 5379 5392 5419 5443 5459 5463 5454 5443 5423 5391 5368 5378 5407 5441 5474 5497 5519 5533 5546 5559 5570 5591 5621 5648 5646 5626 5596 5566 5535 5514 5487 5462 5438 5432 5443 5438 5418 5390 5356 5326 5304 5288 5279 5273 5290 5313 5336 5350 5354 5346 5330 5304 5280 5258 5239 5227 5213 5200 5206 5233 5255 5270 5277 5294 5318 5321 5307 5274 5243 5232 5255 5286 5285 5265 5242 5229 5219 5221 5223 5239 5264 5301 5343 5387 5422 5444 5470 5491 5509 5519 5521 5517 5519 5529 5535 5534 5522 5510 5492 5468 5443 5422 5410 5403 5405 5426 5452 5481 5507 5526 5532 5523 5538 5556 5571 5599 5636 5655 5664 5684 5696 5685 5664 5651 5649 5646 5633 5616 5600 5587 5587 5597 5617 5642 5666 5678 5678 5682 5676 5659 5634 5601 5570 5534 5508 5476 5459 5472 5502 5527 5550 5572 5585 5583 5570 5555 5532 5508 5498 5524 5563 5593 5606 5609 5609 5609 5607 5603 5600 5592 5585 5573 5560
5224 5227 5231 5233 5236 5240 5251 5271 5287 5314 5340 5376 5409 5444 5479 5519 5558 5584 5584 5578 5575 5579 5575 5553 5535 5529 5529 5527 5532 5548 5570 5595 5617 5642 5668 5689 5709 5730 5724 5684 5650 5635 5638 5651 5687 5737 5762 5770 5806 5852 5903 5938 5973 5999 6001 5985 5971 5955 5958 5966 5966 5941 5902 5876 5853 5837 5828 5832 5850 5892 5922 5936 5939 5954 5997 6057 6104 6143 6166 6180 6190 6176 6152 6122 6088 6057 6028 6002 5990 5980 5965 5945 5927 5923 5910 5892 5879 5858 5835 5820 5807 5796 5784 5777 5787 5799 5811 5826 5843 5866 5896 5924 5953 5965 5961 5961 5988 6032 6060 6067 6090 6130 6157 6126 6091 6057 6031 6015 6014 6028 6066 6105 6115 6094 6057 6009 5966 5922 5882 5836 5791 5763 5737 5701 5667 5640 5613 5580 5547 5516 5488 5460 5435 5414 5393 5370 5363 5352 5341 5328 5318 5305 5290 5276 5266 5254 5242 5234 5231 5225 5218 5214 5209 5204 5202 5200 5199 5196 5196 5193 5192 5189 5186 5185 5184 5182 5176 5173 5172 5167 5162 5155 5146 5141 5137 5131 5121 5114 5110 5110 5107 5101 5101 5101 5101 5101 5101 5101 5101 5101 5101 5101 5101 5101 5101 5101 5101 5101 5101 5101 5101 5101 5101 5101 5101 5101 5101 5101 5101 5101 5101 5101 5101 5101 5101 5101 5101 5101 5101 5101 5101 5101 5101 5101 5101 5101 5101 5101 5101 5101 5101 5101 5101 5101 5101 5101 5101 5101 5101 5101 5101 5101 5101 5101 5101 5101 5101 5101 5106 5116 5132 5148 5161 5172 5179 5182 5192 5207 5211 5207 5203 5213 5221 5227 5240 5253 5259 5269 5281 5289 5286 5284 5290 5296 5300 5301 5302 5300 5294 5291 5282 5280 5275 5274 5273 5265 5257 5259 5259 5248 5244 5243 5242 5236 5233 5234 5233 5232 5234 5237 5238 5242 5243 5243 5248 5250 5257 5263 5267 5272 5278 5284 5293 5302 5304 5308 5312 5318 5329 5337 5339 5343 5351 5357 5369 5386 5390 5388 5401 5421 5434 5443 5449 5448 5438 5441 5457 5472 5485 5495 5490 5478 5459 5449 5443 5438 5433 5432 5428 5423 5420 5429 5450 5471 5492 5513 5524 5540 5555 5568 5578 5587 5598 5605 5601 5597 5589 5576 5562 5551 5534 5514 5493 5477 5468 5463 5459 5462 5471 5483 5496 5507 5525 5550 5573 5592 5618 5650 5676 5683 5674 5652 5621 5589 5552 5512 5469 5458 5467 5479 5478 5464 5440 5405 5371 5352 5374 5397 5421 5435 5437 5431 5415 5385 5353 5365 5402 5436 5468 5498 5524 5547 5565 5583 5593 5604 5612 5617 5611 5597 5579 5554 5525 5506 5482 5457 5421 5398 5402 5410 5409 5389 5364 5334 5314 5291 5273 5262 5264 5282 5300 5312 5323 5336 5341 5331 5314 5288 5258 5236 5212 5198 5193 5200 5220 5236 5240 5265 5291 5301 5286 5259 5233 5217 5227 5248 5244 5229 5210 5202 5203 5207 5229 5255 5283 5316 5360 5388 5418 5429 5450 5472 5504 5528 5543 5545 5549 5560 5570 5568 5556 5540 5516 5488 5460 5433 5419 5414 5407 5424 5447 5468 5491 5521 5542 5543 5550 5582 5604 5630 5663 5686 5697 5700 5692 5673 5648 5628 5623 5624 5614 5601 5589 5576 5574 5588 5609 5629 5643 5647 5654 5672 5679 5668 5646 5620 5593 5559 5528 5493 5461 5454 5475 5496 5520 5541 5547 5534 5516 5500 5479 5468 5472 5515 5561 5597 5611 5615 5615 5613 5613 5605 5601 5595 5587 5578 5564
5230 5233 5234 5238 5242 5246 5249 5265 5290 5322 5359 5398 5434 5470 5482 5499 5515 5529 5537 5536 5534 5535 5536 5525 5522 5519 5517 5526 5538 5556 5582 5604 5629 5652 5676 5695 5712 5730 5721 5681 5644 5631 5633 5642 5674 5716 5733 5760 5802 5842 5873 5893 5923 5956 5957 5941 5917 5903 5902 5914 5918 5891 5860 5836 5816 5802 5800 5813 5852 5887 5909 5921 5930 5965 6005 6049 6095 6128 6141 6152 6154 6147 6130 6101 6075 6047 6027 6014 6014 6009 5990 5966 5955 5958 5949 5935 5919 5891 5863 5842 5820 5802 5788 5795 5817 5838 5860 5880 5898 5926 5955 5979 6008 6028 6015 6012 6021 6057 6101 6121 6133 6163 6192 6177 6123 6092 6070 6054 6050 6060 6092 6124 6146 6117 6072 6024 5977 5932 5891 5853 5818 5782 5759 5738 5701 5663 5632 5597 5559 5528 5499 5473 5447 5426 5400 5385 5374 5362 5349 5337 5324 5310 5297 5282 5269 5259 5247 5241 5236 5234 5229 5224 5221 5216 5213 5212 5207 5207 5204 5200 5198 5198 5195 5194 5193 5188 5182 5180 5177 5171 5166 5161 5154 5148 5144 5139 5130 5120 5115 5112 5110 5101 5101 5101 5101 5101 5101 5101 5101 5101 5101 5101 5101 5101 5101 5101 5101 5101 5101 5101 5101 5101 5101 5101 5101 5101 5101 5101 5101 5101 5101 5101 5101 5101 5101 5101 5101 5101 5101 5101 5101 5101 5101 5101 5101 5101 5101 5101 5101 5101 5101 5101 5101 5101 5101 5101 5101 5101 5101 5101 5101 5101 5101 5101 5101 5101 5101 5101 5104 5113 5130 5148 5161 5168 5180 5185 5200 5213 5208 5194 5191 5196 5205 5218 5225 5236 5245 5256 5266 5285 5291 5289 5289 5288 5287 5289 5291 5286 5279 5275 5271 5268 5263 5260 5257 5255 5250 5249 5248 5243 5240 5237 5234 5235 5230 5230 5232 5232 5233 5238 5238 5241 5237 5243 5249 5250 5258 5266 5272 5276 5280 5291 5299 5308 5314 5320 5326 5332 5342 5349 5355 5364 5373 5376 5386 5406 5418 5416 5416 5439 5464 5481 5486 5481 5468 5467 5489 5505 5518 5525 5517 5500 5482 5470 5463 5456 5450 5445 5441 5437 5434 5431 5444 5459 5479 5494 5507 5519 5533 5545 5559 5570 5587 5604 5616 5620 5618 5610 5603 5587 5568 5540 5515 5497 5484 5476 5468 5467 5474 5486 5500 5512 5527 5550 5574 5595 5620 5648 5671 5679 5666 5644 5613 5581 5545 5504 5466 5433 5427 5441 5454 5453 5439 5407 5371 5337 5329 5352 5378 5400 5415 5417 5399 5375 5342 5347 5385 5422 5460 5495 5528 5557 5580 5601 5613 5616 5599 5574 5560 5549 5539 5526 5499 5480 5463 5449 5417 5379 5364 5369 5374 5370 5360 5346 5328 5311 5286 5258 5247 5256 5270 5281 5303 5331 5345 5343 5328 5299 5274 5247 5223 5200 5188 5182 5190 5203 5218 5245 5270 5280 5261 5241 5223 5203 5206 5213 5211 5195 5190 5193 5201 5213 5234 5268 5296 5328 5360 5374 5379 5401 5425 5462 5497 5528 5550 5564 5575 5588 5599 5598 5585 5560 5529 5498 5468 5447 5436 5427 5415 5421 5441 5458 5479 5504 5536 5565 5570 5598 5631 5662 5691 5715 5716 5699 5678 5661 5638 5615 5599 5597 5594 5586 5574 5563 5564 5574 5591 5606 5610 5613 5629 5659 5674 5669 5652 5631 5606 5574 5535 5503 5470 5445 5446 5466 5484 5500 5503 5484 5466 5442 5430 5431 5465 5514 5560 5597 5610 5617 5618 5617 5615 5610 5605 5597 5590 5580 5569
5233 5239 5241 5244 5245 5248 5253 5266 5288 5322 5356 5391 5422 5437 5438 5446 5462 5478 5491 5492 5496 5502 5503 5505 5504 5505 5520 5534 5552 5571 5594 5621 5640 5657 5678 5695 5709 5719 5707 5674 5638 5624 5629 5638 5665 5699 5712 5750 5791 5809 5816 5847 5889 5915 5913 5894 5870 5847 5852 5868 5871 5849 5826 5807 5785 5775 5787 5816 5855 5886 5906 5914 5925 5957 5997 6029 6054 6076 6095 6112 6106 6095 6080 6058 6044 6031 6024 6035 6042 6035 6012 5990 5993 6004 5994 5974 5948 5921 5890 5865 5837 5816 5801 5808 5836 5856 5889 5919 5945 5975 6006 6035 6064 6083 6080 6070 6067 6088 6135 6171 6183 6201 6227 6207 6163 6130 6111 6097 6091 6100 6123 6150 6154 6114 6055 6010 5956 5919 5874 5847 5822 5801 5784 5766 5725 5680 5639 5605 5570 5540 5510 5481 5455 5432 5411 5399 5387 5373 5359 5346 5331 5315 5301 5288 5275 5264 5254 5250 5246 5244 5240 5236 5232 5231 5230 5228 5223 5221 5217 5214 5210 5207 5204 5203 5201 5197 5192 5186 5183 5176 5170 5163 5157 5152 5147 5144 5137 5123 5122 5120 5112 5102 5101 5101 5101 5101 5101 5101 5101 5101 5101 5101 5101 5101 5101 5101 5101 5101 5101 5101 5101 5101 5101 5101 5101 5101 5101 5101 5101 5101 5101 5101 5101 5101 5101 5101 5101 5101 5101 5101 5101 5101 5101 5101 5101 5101 5101 5101 5101 5101 5101 5101 5101 5101 5101 5101 5101 5101 5101 5101 5101 5101 5101 5101 5101 5101 5101 5105 5107 5113 5126 5144 5160 5166 5171 5189 5213 5217 5208 5196 5184 5186 5192 5200 5208 5221 5229 5239 5256 5280 5297 5298 5295 5290 5284 5280 5280 5275 5269 5264 5262 5260 5257 5252 5252 5247 5247 5247 5241 5238 5237 5236 5233 5230 5230 5228 5229 5231 5232 5234 5238 5241 5239 5244 5253 5256 5262 5271 5275 5282 5286 5297 5309 5318 5323 5329 5337 5351 5366 5374 5374 5386 5397 5405 5410 5424 5444 5450 5446 5456 5482 5511 5521 5515 5498 5492 5515 5542 5555 5557 5549 5530 5514 5498 5484 5474 5467 5460 5455 5451 5446 5439 5442 5457 5474 5483 5494 5507 5516 5529 5537 5551 5571 5590 5611 5631 5643 5649 5642 5623 5599 5569 5543 5518 5497 5488 5478 5474 5480 5490 5502 5513 5526 5547 5567 5587 5605 5625 5643 5654 5649 5634 5606 5579 5544 5511 5469 5430 5400 5402 5421 5435 5431 5409 5377 5340 5304 5308 5335 5363 5387 5395 5385 5355 5327 5338 5375 5419 5460 5498 5533 5566 5592 5615 5626 5620 5594 5558 5523 5498 5489 5477 5462 5444 5424 5411 5394 5371 5340 5329 5332 5331 5328 5321 5313 5300 5280 5251 5239 5241 5250 5272 5297 5320 5331 5339 5325 5311 5289 5261 5244 5218 5196 5182 5178 5186 5199 5223 5241 5253 5245 5228 5209 5195 5189 5188 5189 5182 5192 5198 5209 5221 5234 5257 5285 5315 5330 5342 5362 5397 5432 5464 5496 5530 5551 5564 5581 5597 5611 5612 5593 5564 5535 5506 5477 5466 5456 5443 5430 5424 5447 5475 5498 5517 5548 5584 5597 5613 5657 5697 5724 5740 5721 5689 5660 5639 5620 5604 5588 5578 5575 5571 5560 5548 5549 5560 5574 5582 5579 5586 5612 5641 5665 5667 5653 5634 5608 5575 5539 5501 5473 5447 5430 5433 5448 5461 5456 5431 5415 5396 5391 5425 5471 5517 5559 5589 5612 5617 5620 5617 5614 5610 5606 5600 5592 5582 5572
5235 5241 5246 5250 5254 5253 5256 5268 5287 5305 5326 5353 5367 5376 5386 5400 5410 5425 5439 5450 5467 5478 5478 5478 5474 5490 5513 5528 5545 5560 5579 5604 5628 5646 5658 5665 5674 5679 5677 5656 5628 5614 5618 5627 5655 5675 5690 5728 5747 5757 5787 5815 5843 5858 5859 5847 5828 5806 5809 5824 5825 5810 5793 5780 5767 5763 5775 5806 5847 5880 5883 5883 5897 5925 5959 5987 6004 6024 6052 6073 6060 6041 6022 6011 6009 6003 6012 6036 6051 6053 6039 6023 6030 6045 6045 6016 5983 5953 5915 5879 5855 5837 5820 5824 5852 5876 5908 5937 5973 6012 6050 6087 6119 6141 6147 6128 6121 6132 6171 6214 6243 6256 6266 6243 6208 6178 6159 6144 6135 6140 6156 6165 6133 6087 6033 5991 5932 5886 5860 5850 5830 5803 5778 5750 5704 5665 5633 5609 5578 5548 5520 5489 5460 5438 5426 5413 5399 5384 5368 5352 5336 5321 5307 5293 5280 5268 5263 5260 5258 5256 5253 5251 5246 5243 5245 5241 5238 5234 5228 5224 5220 5217 5215 5211 5208 5203 5197 5191 5185 5180 5173 5166 5160 5154 5150 5144 5136 5126 5127 5124 5115 5101 5101 5101 5101 5101 5101 5101 5101 5101 5101 5101 5101 5101 5101 5101 5101 5101 5101 5101 5101 5101 5101 5101 5101 5101 5101 5101 5101 5101 5101 5101 5101 5101 5101 5101 5101 5101 5101 5101 5101 5101 5101 5101 5101 5101 5101 5101 5101 5101 5101 5101 5101 5101 5101 5101 5101 5101 5101 5101 5101 5101 5101 5101 5101 5101 5101 5105 5108 5114 5125 5141 5156 5156 5161 5178 5198 5201 5192 5182 5174 5180 5186 5194 5202 5211 5220 5238 5261 5287 5299 5305 5302 5299 5289 5280 5280 5274 5271 5270 5265 5262 5261 5258 5254 5249 5246 5244 5239 5234 5234 5230 5231 5226 5228 5228 5229 5230 5232 5231 5236 5239 5243 5248 5253 5258 5267 5275 5282 5292 5304 5316 5327 5338 5347 5347 5352 5365 5387 5399 5403 5404 5420 5439 5446 5453 5471 5482 5482 5483 5498 5520 5543 5549 5540 5531 5543 5571 5592 5595 5584 5565 5548 5531 5511 5495 5483 5475 5468 5461 5458 5452 5449 5454 5470 5480 5489 5500 5509 5519 5530 5541 5555 5572 5600 5624 5647 5666 5668 5650 5623 5591 5562 5536 5512 5500 5490 5484 5483 5495 5505 5516 5524 5536 5548 5562 5581 5596 5611 5620 5626 5619 5598 5576 5545 5508 5468 5432 5402 5374 5379 5402 5410 5399 5378 5345 5306 5275 5294 5324 5350 5356 5349 5325 5302 5326 5373 5415 5455 5495 5537 5574 5603 5624 5633 5621 5589 5556 5518 5483 5453 5433 5422 5406 5387 5366 5353 5339 5318 5305 5298 5289 5283 5276 5275 5264 5251 5237 5232 5230 5232 5248 5267 5282 5294 5302 5304 5291 5282 5271 5254 5236 5214 5188 5171 5168 5179 5196 5216 5242 5258 5249 5220 5197 5181 5174 5176 5187 5194 5207 5220 5230 5236 5242 5262 5282 5298 5327 5363 5396 5427 5457 5484 5505 5520 5529 5544 5583 5611 5608 5589 5564 5539 5516 5505 5494 5478 5460 5441 5426 5454 5482 5513 5545 5574 5605 5626 5637 5670 5700 5732 5749 5729 5699 5666 5638 5615 5594 5581 5566 5555 5552 5542 5532 5532 5543 5549 5551 5552 5566 5592 5618 5641 5650 5645 5629 5603 5568 5532 5501 5467 5444 5432 5412 5412 5418 5406 5386 5362 5352 5375 5423 5467 5517 5557 5589 5605 5617 5619 5617 5614 5611 5607 5603 5596 5589 5580
5238 5244 5248 5253 5260 5262 5262 5266 5278 5295 5312 5325 5333 5344 5352 5366 5371 5381 5397 5414 5431 5441 5442 5443 5443 5455 5466 5476 5490 5503 5523 5551 5575 5596 5606 5609 5611 5615 5623 5621 5612 5599 5594 5612 5635 5649 5660 5685 5699 5721 5745 5766 5777 5793 5799 5790 5779 5771 5772 5781 5791 5776 5763 5755 5753 5756 5766 5797 5823 5839 5839 5842 5862 5894 5915 5935 5949 5976 6012 6027 6014 5991 5974 5968 5971 5980 6006 6031 6056 6072 6067 6062 6066 6074 6076 6051 6016 5981 5940 5905 5873 5859 5842 5839 5860 5885 5914 5941 5989 6038 6079 6125 6166 6200 6214 6195 6179 6182 6210 6263 6300 6313 6321 6297 6262 6235 6220 6200 6184 6183 6187 6164 6115 6056 5998 5954 5905 5877 5864 5834 5797 5758 5723 5696 5661 5633 5601 5581 5562 5547 5518 5494 5467 5449 5436 5422 5404 5389 5372 5357 5340 5326 5310 5296 5283 5278 5278 5274 5272 5272 5270 5269 5267 5263 5261 5260 5255 5248 5238 5233 5230 5227 5222 5219 5215 5209 5203 5196 5189 5181 5173 5167 5162 5156 5151 5142 5136 5131 5131 5126 5120 5109 5101 5101 5101 5101 5101 5101 5101 5101 5101 5101 5101 5101 5101 5101 5101 5101 5101 5101 5101 5101 5101 5101 5101 5101 5101 5101 5101 5101 5101 5101 5101 5101 5101 5101 5101 5101 5101 5101 5101 5101 5101 5101 5101 5101 5101 5101 5101 5101 5101 5101 5101 5101 5101 5101 5101 5101 5101 5101 5101 5101 5101 5101 5101 5104 5104 5107 5108 5113 5124 5134 5148 5147 5146 5159 5176 5184 5176 5171 5173 5180 5187 5195 5204 5213 5227 5244 5264 5289 5305 5315 5313 5308 5302 5291 5283 5282 5277 5274 5272 5267 5262 5260 5258 5256 5249 5245 5238 5235 5234 5232 5225 5227 5225 5224 5229 5230 5230 5231 5234 5238 5242 5251 5259 5259 5269 5281 5292 5304 5315 5334 5351 5362 5373 5375 5371 5380 5402 5425 5433 5433 5448 5471 5487 5499 5509 5519 5519 5520 5529 5541 5561 5576 5570 5567 5579 5599 5620 5627 5620 5605 5586 5563 5538 5519 5504 5495 5484 5478 5471 5465 5460 5459 5465 5475 5484 5495 5508 5517 5529 5545 5556 5572 5590 5613 5641 5664 5677 5666 5638 5605 5581 5552 5527 5510 5497 5491 5492 5500 5508 5519 5523 5527 5531 5535 5545 5558 5573 5588 5604 5611 5598 5581 5551 5521 5486 5450 5407 5366 5342 5353 5369 5375 5363 5341 5307 5260 5258 5280 5295 5298 5296 5283 5281 5321 5356 5400 5442 5486 5527 5568 5607 5633 5637 5620 5592 5562 5529 5496 5458 5430 5405 5387 5367 5352 5341 5324 5312 5301 5288 5278 5269 5260 5251 5243 5237 5231 5226 5222 5218 5219 5228 5232 5247 5255 5261 5261 5254 5246 5239 5229 5223 5199 5177 5165 5171 5178 5197 5225 5243 5252 5231 5197 5172 5171 5174 5188 5202 5229 5250 5265 5273 5267 5260 5269 5284 5312 5337 5372 5399 5418 5443 5464 5473 5495 5531 5571 5594 5589 5583 5569 5557 5546 5530 5512 5496 5476 5459 5440 5446 5478 5513 5552 5593 5621 5640 5642 5643 5665 5704 5739 5733 5712 5684 5654 5626 5602 5585 5572 5555 5536 5524 5514 5511 5520 5520 5522 5532 5551 5571 5595 5615 5626 5627 5616 5594 5562 5523 5490 5458 5438 5420 5399 5383 5377 5363 5339 5314 5326 5365 5414 5457 5505 5544 5577 5595 5598 5600 5603 5603 5608 5607 5605 5597 5589 5580
5240 5246 5250 5255 5260 5266 5269 5270 5278 5280 5290 5308 5315 5320 5332 5342 5351 5360 5372 5381 5394 5403 5412 5417 5422 5432 5432 5436 5448 5457 5470 5493 5516 5534 5540 5545 5549 5553 5562 5573 5582 5579 5573 5590 5604 5612 5626 5643 5658 5670 5687 5703 5714 5725 5735 5734 5735 5737 5740 5744 5753 5746 5732 5731 5738 5747 5758 5779 5791 5799 5804 5813 5831 5857 5874 5892 5909 5937 5966 5976 5965 5941 5934 5944 5958 5987 6012 6039 6068 6088 6097 6099 6098 6095 6090 6074 6046 6003 5957 5925 5899 5881 5864 5853 5864 5882 5903 5934 5979 6031 6077 6131 6184 6233 6264 6262 6246 6240 6269 6309 6351 6370 6372 6338 6303 6273 6251 6227 6211 6195 6179 6148 6095 6040 5980 5930 5889 5870 5843 5803 5766 5736 5708 5681 5655 5632 5597 5573 5547 5529 5510 5490 5474 5459 5442 5426 5405 5389 5373 5357 5342 5326 5311 5298 5291 5289 5289 5289 5286 5289 5292 5297 5296 5289 5286 5282 5272 5263 5253 5246 5242 5237 5233 5226 5219 5213 5206 5199 5190 5182 5174 5168 5160 5154 5148 5144 5141 5136 5134 5125 5117 5108 5101 5101 5101 5101 5101 5101 5101 5101 5101 5101 5101 5101 5101 5101 5101 5101 5101 5101 5101 5101 5101 5101 5101 5101 5101 5101 5101 5101 5101 5101 5101 5101 5101 5101 5101 5101 5101 5101 5101 5101 5101 5101 5101 5101 5101 5101 5101 5101 5101 5101 5101 5101 5101 5101 5101 5101 5101 5101 5101 5101 5101 5101 5106 5107 5109 5109 5109 5115 5121 5131 5143 5141 5139 5148 5157 5165 5167 5170 5176 5185 5192 5199 5207 5219 5235 5255 5276 5299 5317 5327 5327 5322 5312 5304 5293 5286 5283 5279 5277 5275 5268 5266 5260 5257 5251 5247 5238 5236 5232 5231 5226 5224 5225 5222 5225 5226 5229 5232 5233 5239 5244 5250 5260 5270 5279 5290 5306 5321 5337 5353 5369 5389 5401 5403 5398 5394 5416 5442 5460 5467 5478 5501 5525 5537 5546 5549 5549 5549 5553 5559 5570 5581 5586 5587 5598 5611 5628 5642 5647 5638 5618 5594 5568 5548 5528 5513 5502 5493 5487 5480 5475 5471 5470 5473 5483 5498 5509 5522 5534 5551 5571 5592 5612 5632 5655 5674 5681 5670 5644 5616 5586 5563 5538 5521 5504 5500 5501 5505 5514 5523 5524 5523 5517 5515 5511 5523 5536 5562 5588 5602 5603 5590 5567 5537 5504 5466 5425 5383 5344 5326 5323 5329 5331 5325 5297 5258 5235 5231 5239 5247 5258 5273 5296 5324 5351 5386 5419 5466 5512 5561 5606 5637 5641 5625 5601 5568 5538 5506 5475 5456 5432 5409 5389 5370 5362 5345 5325 5308 5296 5282 5273 5261 5253 5250 5246 5241 5234 5230 5219 5218 5210 5206 5208 5211 5221 5220 5218 5214 5201 5200 5202 5189 5172 5164 5163 5166 5176 5190 5208 5224 5214 5183 5164 5170 5177 5194 5219 5253 5288 5317 5318 5308 5300 5293 5296 5303 5314 5335 5358 5374 5401 5424 5440 5465 5504 5527 5541 5567 5579 5581 5578 5567 5550 5532 5509 5491 5471 5448 5447 5476 5509 5539 5577 5616 5629 5612 5604 5632 5669 5701 5716 5716 5697 5666 5639 5616 5596 5584 5565 5544 5525 5499 5488 5491 5490 5499 5515 5532 5550 5570 5590 5609 5617 5604 5582 5550 5516 5482 5449 5426 5408 5387 5360 5335 5318 5294 5280 5305 5349 5383 5435 5474 5525 5565 5581 5573 5565 5569 5582 5600 5602 5597 5587 5576 5569
5249 5249 5251 5256 5262 5267 5272 5274 5280 5283 5286 5290 5296 5302 5311 5317 5324 5333 5343 5355 5363 5371 5381 5386 5392 5401 5410 5419 5427 5437 5446 5463 5481 5494 5500 5505 5507 5513 5524 5539 5548 5548 5555 5569 5583 5595 5605 5613 5622 5632 5642 5652 5663 5673 5682 5688 5691 5696 5697 5702 5707 5710 5699 5697 5710 5724 5734 5754 5761 5762 5773 5784 5797 5816 5831 5845 5866 5897 5917 5923 5911 5899 5903 5941 5973 6006 6035 6057 6081 6101 6122 6128 6127 6122 6109 6089 6064 6020 5981 5953 5930 5910 5895 5879 5870 5869 5885 5918 5959 6010 6049 6105 6148 6196 6235 6268 6290 6300 6320 6360 6391 6402 6379 6324 6276 6236 6190 6174 6147 6133 6109 6093 6056 6019 5965 5914 5878 5857 5824 5783 5767 5761 5736 5712 5690 5671 5639 5598 5562 5539 5519 5501 5480 5465 5443 5422 5405 5387 5373 5356 5341 5328 5313 5305 5301 5298 5298 5299 5303 5312 5319 5327 5328 5321 5314 5301 5292 5277 5268 5259 5250 5245 5238 5233 5223 5216 5207 5200 5190 5183 5175 5169 5163 5160 5157 5152 5150 5141 5135 5125 5116 5109 5101 5101 5101 5101 5101 5101 5101 5101 5101 5101 5101 5101 5101 5101 5101 5101 5101 5101 5101 5101 5101 5101 5101 5101 5101 5101 5101 5101 5101 5101 5101 5101 5101 5101 5101 5101 5101 5101 5101 5101 5101 5101 5101 5101 5101 5101 5101 5101 5101 5101 5101 5101 5101 5101 5101 5101 5101 5101 5103 5104 5106 5106 5105 5108 5110 5110 5112 5116 5120 5128 5137 5138 5142 5146 5151 5159 5165 5172 5179 5187 5197 5204 5212 5220 5239 5254 5283 5304 5324 5336 5338 5336 5328 5316 5304 5298 5293 5289 5284 5280 5277 5271 5263 5258 5252 5248 5241 5236 5232 5229 5226 5226 5223 5218 5222 5224 5229 5231 5235 5238 5245 5252 5263 5277 5293 5306 5322 5343 5361 5379 5396 5414 5429 5436 5430 5423 5431 5457 5481 5500 5511 5531 5550 5564 5565 5563 5560 5552 5546 5551 5554 5563 5570 5576 5586 5599 5616 5632 5646 5647 5635 5618 5595 5575 5554 5533 5519 5509 5500 5495 5490 5483 5479 5479 5483 5495 5511 5523 5541 5563 5586 5611 5637 5662 5686 5700 5694 5675 5649 5622 5593 5566 5547 5529 5513 5509 5512 5516 5523 5526 5526 5521 5506 5496 5486 5497 5516 5545 5573 5593 5600 5594 5576 5551 5519 5485 5447 5407 5363 5327 5297 5280 5288 5292 5277 5245 5218 5216 5233 5247 5273 5309 5341 5362 5382 5411 5445 5481 5520 5564 5608 5643 5646 5631 5608 5577 5549 5520 5503 5489 5464 5437 5410 5398 5387 5372 5350 5329 5311 5295 5283 5273 5268 5264 5262 5257 5249 5239 5231 5231 5223 5218 5208 5202 5195 5189 5185 5180 5176 5176 5174 5167 5162 5160 5159 5157 5157 5164 5178 5192 5180 5159 5162 5176 5187 5208 5236 5274 5312 5349 5362 5348 5333 5333 5335 5341 5346 5348 5350 5364 5384 5404 5419 5442 5465 5485 5510 5551 5574 5596 5601 5590 5569 5544 5521 5497 5475 5469 5461 5461 5485 5517 5549 5575 5586 5572 5568 5598 5631 5652 5681 5708 5704 5682 5660 5637 5615 5597 5579 5555 5525 5498 5480 5469 5464 5478 5494 5510 5525 5543 5566 5593 5609 5601 5576 5544 5505 5469 5435 5411 5386 5363 5343 5319 5293 5270 5255 5273 5307 5356 5403 5455 5510 5547 5556 5541 5530 5540 5565 5586 5588 5576 5560 5543 5534
5262 5261 5258 5258 5261 5265 5268 5274 5282 5294 5305 5307 5309 5312 5318 5320 5323 5333 5339 5342 5349 5357 5362 5372 5384 5390 5393 5399 5407 5416 5431 5450 5467 5474 5475 5477 5486 5490 5500 5511 5519 5527 5537 5549 5563 5568 5569 5576 5585 5594 5600 5610 5618 5629 5640 5651 5658 5662 5668 5668 5671 5677 5680 5686 5698 5705 5714 5731 5744 5752 5753 5759 5769 5784 5797 5812 5830 5851 5862 5872 5868 5868 5896 5947 5984 6023 6059 6087 6100 6121 6142 6150 6150 6145 6129 6108 6077 6042 6011 5991 5964 5942 5925 5903 5891 5875 5887 5913 5944 5979 6015 6062 6106 6136 6184 6223 6256 6284 6313 6343 6363 6372 6335 6278 6230 6182 6144 6111 6080 6061 6038 6032 6008 5978 5940 5899 5873 5859 5834 5811 5808 5793 5766 5735 5713 5688 5653 5615 5585 5560 5539 5517 5493 5469 5445 5423 5407 5391 5374 5356 5341 5331 5324 5317 5312 5309 5310 5313 5319 5334 5345 5350 5346 5342 5333 5320 5312 5298 5283 5272 5260 5250 5245 5239 5233 5224 5214 5204 5198 5191 5183 5178 5174 5168 5160 5155 5152 5146 5135 5125 5116 5109 5101 5101 5101 5101 5101 5101 5101 5101 5101 5101 5101 5101 5101 5101 5101 5101 5101 5101 5101 5101 5101 5101 5101 5101 5101 5101 5101 5101 5101 5101 5101 5101 5101 5101 5101 5101 5101 5101 5101 5101 5101 5101 5101 5101 5101 5101 5101 5101 5101 5101 5101 5101 5101 5101 5101 5105 5103 5104 5105 5107 5107 5108 5110 5109 5111 5112 5113 5115 5120 5126 5135 5137 5138 5145 5153 5158 5163 5173 5183 5193 5203 5209 5221 5230 5243 5259 5281 5307 5329 5342 5349 5349 5342 5330 5320 5311 5304 5298 5291 5287 5283 5277 5270 5264 5254 5247 5243 5234 5232 5228 5225 5222 5222 5223 5224 5225 5226 5229 5235 5238 5244 5256 5271 5288 5307 5328 5349 5370 5388 5408 5424 5441 5457 5468 5468 5455 5454 5471 5496 5515 5530 5541 5556 5567 5561 5549 5535 5520 5511 5514 5521 5528 5534 5541 5551 5564 5588 5610 5628 5638 5638 5632 5619 5597 5576 5553 5537 5525 5515 5508 5501 5497 5492 5488 5489 5499 5514 5525 5542 5565 5592 5623 5651 5683 5708 5717 5702 5678 5650 5622 5590 5570 5550 5538 5525 5523 5525 5528 5533 5531 5525 5515 5494 5482 5467 5482 5508 5531 5555 5574 5583 5583 5571 5553 5531 5501 5466 5429 5387 5350 5307 5275 5255 5252 5243 5218 5203 5224 5246 5270 5303 5337 5372 5404 5427 5452 5489 5522 5560 5592 5630 5655 5655 5641 5618 5592 5569 5552 5534 5516 5491 5458 5440 5435 5422 5406 5382 5359 5342 5325 5312 5298 5286 5281 5280 5275 5267 5263 5253 5245 5238 5231 5222 5215 5209 5202 5196 5190 5181 5178 5173 5165 5163 5159 5154 5154 5152 5149 5151 5161 5155 5153 5163 5182 5199 5221 5242 5289 5330 5363 5394 5398 5389 5382 5386 5389 5390 5387 5379 5391 5419 5437 5458 5478 5489 5497 5502 5543 5588 5615 5620 5608 5584 5555 5525 5501 5500 5506 5494 5470 5462 5481 5514 5529 5538 5529 5542 5569 5594 5625 5666 5706 5715 5710 5692 5670 5642 5613 5587 5556 5530 5503 5482 5460 5445 5446 5463 5478 5495 5514 5544 5574 5596 5598 5571 5537 5495 5462 5418 5386 5360 5344 5330 5311 5288 5256 5239 5245 5289 5340 5391 5444 5491 5528 5523 5502 5495 5524 5559 5579 5569 5547 5520 5498 5488
5262 5261 5258 5258 5261 5265 5268 5274 5282 5294 5305 5307 5309 5312 5318 5320 5323 5333 5339 5342 5349 5357 5362 5372 5384 5390 5393 5399 5407 5416 5431 5450 5467 5474 5475 5477 5486 5490 5500 5511 5519 5527 5537 5549 5563 5568 5569 5576 5585 5594 5600 5610 5618 5629 5640 5651 5658 5662 5668 5668 5671 5677 5680 5686 5698 5705 5714 5731 5744 5752 5753 5759 5769 5784 5797 5812 5830 5851 5862 5872 5868 5868 5896 5947 5984 6023 6059 6087 6100 6121 6142 6150 6150 6145 6129 6108 6077 6042 6011 5991 5964 5942 5925 5903 5891 5875 5887 5913 5944 5979 6015 6062 6106 6136 6184 6223 6256 6284 6313 6343 6363 6372 6335 6278 6230 6182 6144 6111 6080 6061 6038 6032 6008 5978 5940 5899 5873 5859 5834 5811 5808 5793 5766 5735 5713 5688 5653 5615 5585 5560 5539 5517 5493 5469 5445 5423 5407 5391 5374 5356 5341 5331 5324 5317 5312 5309 5310 5313 5319 5334 5345 5350 5346 5342 5333 5320 5312 5298 5283 5272 5260 5250 5245 5239 5233 5224 5214 5204 5198 5191 5183 5178 5174 5168 5160 5155 5152 5146 5135 5125 5116 5109 5101 5101 5101 5101 5101 5101 5101 5101 5101 5101 5101 5101 5101 5101 5101 5101 5101 5101 5101 5101 5101 5101 5101 5101 5101 5101 5101 5101 5101 5101 5101 5101 5101 5101 5101 5101 5101 5101 5101 5101 5101 5101 5101 5101 5101 5101 5101 5101 5101 5101 5101 5101 5101 5101 5101 5105 5103 5104 5105 5107 5107 5108 5110 5109 5111 5112 5113 5115 5120 5126 5135 5137 5138 5145 5153 5158 5163 5173 5183 5193 5203 5209 5221 5230 5243 5259 5281 5307 5329 5342 5349 5349 5342 5330 5320 5311 5304 5298 5291 5287 5283 5277 5270 5264 5254 5247 5243 5234 5232 5228 5225 5222 5222 5223 5224 5225 5226 5229 5235 5238 5244 5256 5271 5288 5307 5328 5349 5370 5388 5408 5424 5441 5457 5468 5468 5455 5454 5471 5496 5515 5530 5541 5556 5567 5561 5549 5535 5520 5511 5514 5521 5528 5534 5541 5551 5564 5588 5610 5628 5638 5638 5632 5619 5597 5576 5553 5537 5525 5515 5508 5501 5497 5492 5488 5489 5499 5514 5525 5542 5565 5592 5623 5651 5683 5708 5717 5702 5678 5650 5622 5590 5570 5550 5538 5525 5523 5525 5528 5533 5531 5525 5515 5494 5482 5467 5482 5508 5531 5555 5574 5583 5583 5571 5553 5531 5501 5466 5429 5387 5350 5307 5275 5255 5252 5243 5218 5203 5224 5246 5270 5303 5337 5372 5404 5427 5452 5489 5522 5560 5592 5630 5655 5655 5641 5618 5592 5569 5552 5534 5516 5491 5458 5440 5435 5422 5406 5382 5359 5342 5325 5312 5298 5286 5281 5280 5275 5267 5263 5253 5245 5238 5231 5222 5215 5209 5202 5196 5190 5181 5178 5173 5165 5163 5159 5154 5154 5152 5149 5151 5161 5155 5153 5163 5182 5199 5221 5242 5289 5330 5363 5394 5398 5389 5382 5386 5389 5390 5387 5379 5391 5419 5437 5458 5478 5489 5497 5502 5543 5588 5615 5620 5608 5584 5555 5525 5501 5500 5506 5494 5470 5462 5481 5514 5529 5538 5529 5542 5569 5594 5625 5666 5706 5715 5710 5692 5670 5642 5613 5587 5556 5530 5503 5482 5460 5445 5446 5463 5478 5495 5514 5544 5574 5596 5598 5571 5537 5495 5462 5418 5386 5360 5344 5330 5311 5288 5256 5239 5245 5289 5340 5391 5444 5491 5528 5523 5502 5495 5524 5559 5579 5569 5547 5520 5498 5488
5275 5273 5267 5268 5268 5269 5268 5272 5279 5292 5311 5324 5330 5336 5341 5344 5348 5356 5363 5368 5373 5379 5385 5393 5404 5411 5417 5422 5422 5424 5425 5429 5438 5447 5452 5460 5470 5476 5483 5494 5501 5511 5519 5531 5537 5543 5547 5551 5559 5567 5573 5581 5591 5600 5609 5620 5627 5632 5642 5652 5656 5664 5672 5678 5687 5693 5702 5714 5718 5727 5735 5739 5744 5753 5766 5779 5791 5807 5823 5835 5840 5859 5904 5955 6002 6038 6075 6107 6125 6142 6161 6169 6172 6163 6147 6130 6103 6066 6041 6026 5999 5975 5950 5927 5912 5896 5896 5908 5930 5951 5981 6017 6055 6091 6133 6169 6200 6224 6243 6270 6297 6323 6303 6247 6194 6141 6103 6058 6024 6000 5985 5970 5949 5930 5904 5879 5868 5859 5852 5854 5855 5836 5810 5779 5753 5725 5698 5662 5628 5587 5554 5525 5495 5471 5452 5430 5415 5391 5381 5362 5352 5340 5336 5330 5323 5320 5322 5329 5340 5354 5359 5357 5357 5352 5343 5336 5328 5315 5300 5286 5268 5257 5258 5258 5250 5240 5232 5221 5211 5203 5195 5189 5182 5174 5167 5160 5154 5147 5139 5131 5118 5110 5101 5101 5101 5101 5101 5101 5101 5101 5101 5101 5101 5101 5101 5101 5101 5101 5101 5101 5101 5101 5101 5101 5101 5101 5101 5101 5101 5101 5101 5101 5101 5101 5101 5101 5101 5101 5101 5101 5101 5101 5101 5101 5101 5101 5101 5101 5101 5101 5101 5101 5101 5101 5101 5104 5105 5107 5106 5108 5107 5108 5107 5109 5110 5109 5110 5113 5116 5115 5118 5125 5134 5134 5138 5145 5152 5157 5168 5180 5192 5202 5207 5218 5231 5246 5259 5273 5291 5312 5337 5353 5361 5362 5357 5347 5337 5328 5316 5308 5302 5299 5296 5292 5283 5273 5259 5249 5244 5237 5231 5226 5222 5217 5218 5221 5224 5222 5224 5228 5234 5238 5247 5263 5284 5306 5329 5351 5371 5393 5413 5435 5451 5462 5476 5489 5491 5471 5463 5475 5490 5505 5506 5512 5519 5529 5529 5515 5500 5483 5474 5474 5484 5491 5497 5503 5515 5537 5559 5583 5604 5621 5630 5633 5627 5611 5596 5576 5558 5541 5531 5521 5516 5506 5501 5496 5496 5501 5513 5524 5541 5561 5589 5622 5654 5683 5700 5700 5687 5664 5641 5615 5593 5572 5556 5543 5539 5538 5538 5541 5543 5540 5533 5516 5495 5477 5456 5463 5490 5511 5533 5550 5558 5557 5553 5544 5526 5505 5478 5447 5406 5372 5332 5290 5253 5222 5210 5199 5200 5239 5273 5304 5323 5352 5382 5421 5447 5479 5509 5546 5584 5615 5647 5664 5664 5652 5635 5617 5597 5582 5563 5538 5508 5486 5479 5474 5465 5444 5424 5409 5387 5367 5342 5330 5320 5312 5305 5302 5304 5299 5286 5269 5261 5250 5242 5237 5232 5226 5218 5212 5208 5205 5202 5199 5190 5173 5158 5149 5147 5145 5145 5149 5149 5154 5168 5189 5214 5236 5259 5291 5329 5372 5414 5435 5436 5432 5435 5434 5431 5419 5404 5421 5457 5477 5500 5517 5531 5531 5519 5543 5590 5621 5629 5616 5589 5562 5534 5520 5531 5539 5528 5508 5488 5467 5472 5485 5494 5503 5521 5548 5583 5621 5658 5694 5726 5741 5727 5699 5667 5632 5597 5563 5533 5502 5479 5456 5434 5421 5432 5445 5465 5489 5521 5556 5581 5589 5561 5519 5485 5443 5398 5359 5333 5315 5303 5286 5269 5245 5225 5231 5281 5333 5389 5440 5487 5509 5490 5468 5472 5509 5543 5566 5552 5525 5493 5463 5443
5292 5285 5279 5278 5278 5277 5277 5282 5289 5294 5307 5326 5339 5349 5358 5365 5369 5377 5386 5393 5400 5403 5410 5419 5429 5440 5438 5444 5451 5454 5451 5449 5453 5457 5465 5475 5480 5488 5494 5501 5510 5516 5524 5535 5543 5552 5559 5561 5564 5571 5574 5576 5581 5586 5594 5603 5610 5614 5622 5629 5636 5645 5655 5660 5668 5676 5680 5688 5696 5703 5713 5717 5724 5735 5742 5748 5762 5774 5791 5811 5832 5864 5915 5968 6017 6059 6096 6129 6145 6163 6182 6191 6193 6191 6185 6165 6143 6110 6091 6068 6039 6015 5987 5963 5942 5930 5915 5918 5929 5944 5957 5978 6005 6039 6076 6112 6143 6169 6198 6219 6241 6260 6263 6229 6169 6110 6064 6036 6001 5981 5969 5951 5935 5922 5901 5884 5877 5876 5890 5907 5906 5885 5863 5832 5798 5776 5741 5708 5664 5618 5579 5537 5500 5475 5457 5437 5419 5398 5383 5371 5361 5350 5347 5344 5338 5338 5339 5346 5357 5367 5369 5371 5368 5367 5362 5356 5349 5333 5318 5306 5280 5270 5278 5276 5267 5254 5245 5233 5223 5214 5207 5200 5195 5185 5175 5165 5158 5151 5145 5138 5124 5114 5108 5106 5101 5101 5101 5101 5101 5101 5101 5101 5101 5101 5101 5101 5101 5101 5101 5101 5101 5101 5101 5101 5101 5101 5101 5101 5101 5101 5101 5101 5101 5101 5101 5101 5101 5101 5101 5101 5101 5101 5101 5101 5101 5101 5101 5101 5101 5101 5101 5100 5106 5106 5106 5107 5105 5106 5106 5107 5108 5109 5108 5110 5110 5112 5112 5117 5120 5118 5121 5125 5132 5135 5140 5144 5152 5162 5180 5196 5211 5217 5222 5225 5236 5252 5270 5289 5309 5335 5355 5373 5383 5383 5377 5366 5353 5343 5330 5319 5315 5320 5322 5315 5304 5288 5269 5254 5244 5238 5230 5224 5220 5218 5220 5222 5221 5221 5225 5230 5234 5237 5254 5277 5301 5325 5352 5376 5394 5414 5433 5449 5458 5465 5469 5471 5466 5451 5439 5443 5458 5460 5461 5459 5463 5473 5478 5474 5466 5452 5447 5452 5461 5468 5477 5487 5501 5518 5538 5554 5574 5595 5614 5627 5629 5619 5608 5593 5577 5560 5547 5534 5526 5519 5512 5507 5504 5507 5516 5526 5540 5555 5581 5613 5643 5668 5677 5668 5656 5639 5621 5599 5585 5569 5559 5551 5548 5549 5550 5552 5555 5552 5542 5525 5505 5480 5451 5439 5458 5482 5500 5513 5520 5522 5517 5509 5503 5491 5472 5446 5413 5381 5346 5301 5261 5222 5205 5193 5207 5249 5293 5332 5360 5370 5391 5419 5445 5479 5509 5548 5586 5620 5650 5673 5677 5671 5657 5641 5620 5602 5582 5556 5537 5522 5516 5511 5502 5487 5468 5449 5432 5412 5392 5371 5363 5355 5337 5342 5347 5338 5313 5293 5281 5277 5276 5272 5267 5257 5252 5242 5241 5252 5257 5246 5232 5212 5180 5153 5143 5140 5140 5143 5146 5152 5167 5199 5236 5267 5295 5325 5356 5392 5427 5455 5468 5469 5472 5473 5464 5444 5434 5459 5483 5508 5529 5551 5560 5551 5528 5543 5580 5612 5628 5621 5598 5567 5544 5550 5568 5577 5567 5550 5528 5505 5486 5496 5510 5524 5535 5551 5580 5607 5647 5689 5735 5761 5749 5714 5682 5642 5606 5569 5535 5505 5480 5455 5429 5406 5409 5421 5444 5466 5497 5532 5563 5576 5554 5510 5467 5428 5379 5330 5296 5282 5274 5259 5242 5214 5203 5231 5285 5339 5392 5442 5482 5484 5458 5433 5453 5495 5527 5537 5520 5495 5460 5427 5401
5311 5302 5296 5291 5289 5288 5291 5295 5299 5304 5315 5331 5346 5364 5381 5388 5400 5402 5407 5413 5424 5429 5436 5444 5454 5469 5467 5464 5480 5487 5488 5480 5478 5481 5482 5490 5499 5506 5515 5521 5532 5542 5552 5560 5573 5583 5584 5588 5589 5592 5593 5594 5594 5598 5603 5608 5617 5621 5629 5628 5632 5641 5650 5658 5660 5669 5674 5680 5688 5696 5703 5710 5721 5727 5735 5741 5748 5759 5775 5801 5832 5870 5924 5980 6019 6058 6098 6122 6149 6178 6195 6210 6217 6224 6227 6215 6191 6170 6145 6124 6090 6062 6029 6005 5985 5969 5950 5940 5944 5952 5965 5983 5991 6010 6034 6061 6086 6117 6141 6160 6182 6202 6220 6214 6156 6090 6053 6023 6010 5998 5989 5973 5957 5937 5918 5903 5901 5913 5937 5954 5955 5935 5905 5878 5840 5808 5781 5744 5701 5652 5607 5563 5523 5493 5473 5448 5424 5407 5393 5381 5370 5361 5364 5362 5361 5366 5366 5370 5376 5380 5379 5383 5380 5377 5367 5362 5359 5339 5326 5318 5290 5283 5292 5292 5281 5268 5256 5244 5234 5228 5218 5219 5213 5203 5188 5175 5165 5157 5151 5143 5132 5121 5113 5108 5101 5101 5101 5101 5101 5101 5101 5101 5101 5101 5101 5101 5101 5101 5101 5101 5101 5101 5101 5101 5101 5101 5101 5101 5101 5101 5101 5101 5101 5101 5101 5101 5101 5101 5101 5101 5101 5101 5101 5101 5101 5101 5101 5101 5101 5103 5106 5106 5107 5106 5106 5105 5107 5107 5108 5111 5110 5109 5107 5111 5110 5114 5114 5117 5120 5120 5125 5130 5133 5137 5143 5147 5159 5170 5192 5216 5239 5246 5242 5243 5247 5254 5273 5296 5320 5350 5377 5398 5410 5409 5398 5385 5369 5358 5346 5332 5333 5346 5348 5338 5325 5302 5279 5258 5242 5238 5230 5224 5218 5218 5219 5220 5220 5219 5224 5229 5232 5243 5265 5288 5313 5341 5371 5398 5415 5427 5438 5444 5446 5447 5443 5439 5432 5419 5411 5406 5413 5413 5410 5406 5407 5414 5424 5428 5430 5429 5433 5438 5449 5457 5466 5477 5494 5505 5520 5534 5553 5568 5586 5605 5617 5619 5614 5603 5591 5578 5563 5550 5540 5532 5524 5516 5511 5512 5521 5529 5541 5554 5576 5603 5629 5646 5648 5639 5629 5613 5601 5589 5581 5574 5566 5561 5558 5559 5563 5566 5566 5563 5554 5534 5509 5483 5450 5423 5416 5433 5449 5459 5465 5467 5466 5470 5471 5467 5455 5426 5397 5364 5328 5292 5253 5210 5193 5184 5214 5258 5301 5344 5388 5408 5422 5441 5454 5478 5510 5548 5587 5618 5651 5679 5690 5687 5673 5649 5630 5608 5590 5576 5565 5556 5550 5545 5536 5522 5505 5488 5470 5455 5434 5416 5409 5395 5375 5377 5384 5374 5345 5318 5312 5312 5316 5315 5308 5293 5287 5277 5281 5293 5292 5289 5273 5245 5205 5175 5158 5144 5138 5138 5144 5154 5184 5212 5248 5290 5321 5355 5383 5405 5425 5438 5458 5476 5484 5493 5490 5475 5462 5475 5504 5528 5550 5569 5574 5559 5540 5541 5558 5594 5616 5626 5613 5595 5574 5587 5607 5616 5608 5590 5563 5528 5514 5525 5548 5560 5574 5589 5609 5640 5677 5719 5749 5757 5742 5711 5681 5644 5611 5576 5538 5508 5476 5447 5420 5395 5381 5396 5416 5444 5476 5513 5548 5565 5547 5503 5452 5410 5361 5319 5273 5256 5242 5231 5207 5190 5199 5253 5303 5355 5402 5448 5473 5459 5427 5408 5430 5466 5494 5504 5487 5458 5424 5396 5369
5324 5319 5313 5310 5304 5304 5308 5312 5315 5323 5332 5347 5364 5383 5403 5419 5433 5440 5441 5436 5443 5453 5468 5478 5491 5502 5490 5484 5493 5512 5522 5521 5520 5521 5523 5526 5531 5535 5544 5552 5564 5576 5593 5603 5615 5627 5630 5627 5624 5626 5629 5626 5625 5627 5624 5627 5633 5635 5645 5652 5657 5662 5667 5669 5671 5676 5682 5684 5688 5694 5700 5707 5720 5724 5730 5739 5747 5750 5764 5793 5825 5861 5905 5951 5988 6012 6047 6078 6112 6147 6178 6201 6226 6252 6275 6270 6247 6223 6203 6183 6143 6103 6076 6049 6028 6013 5998 5979 5967 5963 5975 5994 6006 6019 6039 6059 6073 6094 6114 6130 6148 6161 6175 6187 6169 6109 6058 6038 6029 6019 6011 5993 5974 5952 5935 5928 5939 5960 5980 5988 5984 5974 5949 5912 5881 5841 5803 5766 5728 5676 5630 5588 5544 5514 5484 5461 5437 5417 5403 5389 5379 5374 5383 5388 5389 5394 5396 5399 5400 5395 5387 5387 5381 5377 5368 5366 5354 5338 5329 5312 5292 5299 5306 5303 5293 5280 5267 5256 5248 5241 5234 5239 5240 5226 5206 5189 5176 5166 5160 5150 5138 5127 5118 5109 5105 5101 5101 5101 5101 5101 5101 5101 5101 5101 5101 5101 5101 5101 5101 5101 5101 5101 5101 5101 5101 5101 5101 5101 5101 5101 5101 5101 5101 5101 5101 5101 5101 5101 5101 5101 5101 5101 5101 5101 5105 5105 5105 5106 5103 5107 5107 5107 5108 5109 5108 5107 5110 5110 5112 5112 5111 5112 5114 5115 5115 5119 5119 5117 5122 5127 5130 5133 5140 5143 5151 5157 5168 5181 5207 5239 5258 5272 5272 5267 5267 5271 5287 5309 5329 5359 5395 5419 5434 5427 5415 5401 5387 5372 5360 5343 5347 5363 5369 5359 5339 5312 5284 5261 5246 5239 5232 5223 5218 5216 5215 5215 5216 5219 5223 5228 5231 5243 5268 5295 5327 5354 5384 5408 5421 5426 5427 5425 5420 5414 5408 5404 5399 5388 5384 5376 5376 5376 5372 5376 5381 5389 5396 5403 5409 5420 5428 5436 5446 5456 5465 5475 5489 5498 5512 5522 5532 5549 5565 5579 5594 5603 5607 5606 5599 5588 5579 5568 5552 5542 5534 5528 5523 5523 5524 5533 5544 5555 5572 5594 5615 5627 5626 5620 5612 5603 5597 5589 5581 5577 5573 5571 5568 5570 5573 5575 5575 5573 5561 5539 5517 5491 5460 5421 5394 5381 5390 5400 5406 5406 5402 5407 5415 5425 5427 5403 5373 5335 5299 5266 5228 5197 5181 5182 5215 5257 5300 5346 5387 5418 5436 5456 5479 5498 5523 5552 5587 5621 5654 5681 5695 5686 5660 5632 5607 5595 5592 5591 5588 5583 5576 5569 5558 5547 5534 5519 5503 5489 5472 5460 5449 5434 5413 5416 5421 5399 5375 5362 5350 5350 5361 5360 5346 5329 5327 5316 5316 5328 5326 5318 5292 5255 5221 5196 5166 5141 5134 5135 5143 5156 5188 5227 5255 5297 5327 5350 5370 5382 5394 5412 5435 5453 5463 5483 5505 5513 5508 5509 5523 5545 5560 5576 5581 5577 5569 5564 5562 5576 5609 5631 5633 5620 5613 5625 5640 5650 5643 5618 5578 5548 5538 5555 5586 5601 5614 5635 5655 5681 5717 5745 5759 5745 5721 5689 5659 5629 5604 5573 5536 5500 5470 5439 5407 5379 5363 5369 5397 5426 5461 5500 5532 5553 5537 5501 5454 5408 5357 5313 5263 5234 5214 5201 5185 5177 5211 5272 5324 5374 5419 5453 5457 5431 5385 5375 5400 5431 5454 5463 5453 5425 5395 5363 5334
5327 5331 5334 5329 5321 5322 5320 5326 5332 5343 5351 5364 5379 5394 5415 5438 5453 5465 5469 5458 5458 5467 5485 5507 5522 5530 5516 5506 5517 5537 5560 5572 5580 5581 5580 5585 5588 5585 5582 5594 5609 5624 5640 5657 5671 5677 5679 5677 5671 5669 5674 5671 5668 5668 5667 5667 5663 5663 5674 5684 5690 5697 5698 5698 5698 5699 5700 5702 5698 5697 5703 5709 5719 5723 5730 5737 5746 5749 5756 5772 5804 5835 5868 5893 5917 5947 5973 6011 6045 6069 6114 6153 6197 6234 6271 6294 6296 6282 6263 6235 6194 6146 6118 6089 6071 6059 6042 6024 6009 5994 5987 5996 6013 6021 6047 6067 6081 6099 6110 6121 6132 6146 6157 6170 6163 6129 6090 6066 6052 6040 6028 6007 5985 5962 5948 5951 5974 5998 6010 6013 6010 6005 5984 5945 5910 5862 5818 5774 5731 5686 5652 5606 5561 5525 5494 5471 5448 5432 5412 5399 5393 5395 5406 5410 5415 5418 5420 5418 5412 5406 5394 5384 5378 5375 5365 5353 5342 5331 5313 5308 5314 5320 5323 5315 5305 5294 5281 5273 5265 5258 5253 5251 5250 5236 5214 5200 5184 5174 5167 5157 5146 5133 5125 5117 5108 5104 5101 5101 5101 5101 5101 5101 5101 5101 5101 5101 5101 5101 5101 5101 5101 5101 5101 5101 5101 5101 5101 5101 5101 5101 5101 5101 5101 5101 5101 5101 5101 5101 5101 5101 5101 5101 5105 5106 5107 5107 5107 5109 5106 5108 5107 5110 5109 5110 5109 5110 5113 5113 5113 5116 5116 5117 5120 5120 5121 5123 5124 5125 5128 5132 5139 5137 5147 5153 5162 5171 5182 5198 5225 5256 5283 5299 5303 5300 5301 5298 5300 5318 5349 5380 5412 5439 5448 5441 5426 5409 5395 5383 5371 5357 5360 5372 5378 5370 5349 5317 5288 5267 5249 5242 5234 5226 5224 5219 5216 5216 5216 5219 5223 5227 5231 5245 5269 5296 5327 5356 5381 5398 5409 5410 5404 5396 5385 5378 5375 5372 5367 5365 5360 5355 5359 5368 5373 5382 5390 5393 5400 5407 5413 5420 5428 5436 5442 5455 5464 5475 5484 5496 5509 5518 5529 5539 5551 5564 5573 5585 5595 5603 5601 5598 5594 5584 5572 5560 5547 5538 5533 5530 5534 5540 5550 5558 5573 5592 5609 5618 5618 5612 5607 5600 5594 5588 5581 5580 5579 5577 5580 5579 5582 5581 5576 5572 5561 5545 5528 5504 5476 5430 5402 5377 5351 5344 5342 5345 5344 5344 5361 5373 5384 5376 5345 5303 5267 5232 5199 5175 5170 5186 5219 5253 5284 5324 5363 5382 5403 5427 5459 5489 5521 5553 5586 5619 5647 5664 5666 5652 5630 5606 5581 5571 5576 5586 5591 5587 5580 5576 5568 5556 5540 5527 5515 5508 5500 5493 5489 5476 5457 5460 5459 5439 5424 5411 5402 5398 5406 5405 5392 5383 5377 5357 5352 5352 5339 5322 5301 5275 5245 5209 5167 5137 5131 5134 5140 5163 5198 5232 5260 5282 5313 5325 5330 5343 5369 5391 5404 5418 5442 5476 5511 5532 5542 5539 5544 5559 5576 5585 5590 5595 5597 5599 5595 5582 5600 5633 5647 5647 5648 5655 5666 5680 5670 5637 5598 5574 5575 5591 5614 5641 5662 5680 5694 5707 5726 5740 5739 5724 5694 5662 5627 5599 5580 5555 5527 5492 5459 5424 5389 5361 5344 5348 5373 5412 5446 5485 5516 5538 5533 5496 5446 5401 5355 5305 5267 5231 5195 5177 5163 5169 5215 5277 5324 5371 5414 5436 5424 5397 5360 5342 5362 5394 5414 5415 5408 5393 5365 5331 5300
5322 5328 5333 5332 5333 5336 5333 5340 5350 5360 5369 5379 5389 5400 5423 5451 5471 5484 5491 5478 5476 5493 5514 5537 5554 5559 5544 5530 5549 5576 5601 5621 5638 5645 5647 5648 5649 5645 5626 5642 5667 5674 5685 5701 5721 5732 5736 5739 5733 5720 5731 5728 5727 5725 5723 5725 5724 5718 5720 5731 5738 5749 5755 5755 5753 5749 5747 5738 5729 5719 5718 5721 5725 5727 5734 5741 5748 5753 5756 5764 5784 5809 5839 5861 5877 5889 5902 5935 5974 6014 6053 6090 6132 6181 6220 6257 6295 6319 6318 6281 6238 6195 6161 6134 6115 6110 6097 6072 6053 6044 6026 6020 6025 6032 6052 6076 6091 6104 6113 6124 6136 6144 6153 6161 6167 6165 6145 6118 6094 6076 6050 6024 6007 5988 5982 5990 6013 6031 6043 6044 6041 6038 6009 5965 5920 5876 5828 5776 5724 5689 5662 5623 5582 5544 5514 5486 5462 5442 5423 5411 5409 5416 5424 5430 5431 5435 5432 5429 5417 5410 5397 5388 5379 5368 5347 5335 5329 5332 5330 5338 5341 5343 5339 5332 5319 5310 5300 5292 5288 5277 5268 5259 5255 5244 5225 5209 5197 5183 5173 5164 5154 5141 5132 5122 5115 5107 5101 5101 5101 5101 5101 5101 5101 5101 5101 5101 5101 5101 5101 5101 5101 5101 5101 5101 5101 5101 5101 5101 5101 5101 5101 5101 5101 5101 5101 5107 5107 5105 5107 5106 5106 5105 5106 5108 5106 5108 5109 5108 5108 5109 5109 5112 5111 5112 5111 5112 5114 5114 5116 5119 5119 5120 5120 5123 5124 5126 5128 5130 5132 5134 5145 5149 5159 5171 5181 5187 5200 5217 5233 5265 5298 5323 5336 5340 5341 5330 5332 5332 5355 5387 5422 5451 5457 5445 5429 5413 5398 5389 5377 5367 5369 5377 5381 5377 5358 5326 5294 5270 5252 5243 5235 5228 5224 5219 5218 5215 5217 5218 5221 5224 5229 5242 5266 5291 5321 5346 5363 5375 5382 5377 5366 5356 5349 5349 5348 5342 5337 5340 5346 5351 5359 5372 5380 5388 5396 5401 5408 5415 5419 5428 5433 5441 5450 5461 5470 5477 5491 5500 5510 5519 5528 5535 5546 5557 5564 5572 5584 5594 5600 5605 5606 5601 5592 5580 5565 5552 5545 5541 5542 5548 5554 5565 5580 5593 5609 5617 5618 5613 5604 5594 5589 5584 5582 5585 5587 5586 5590 5583 5582 5582 5574 5565 5560 5556 5541 5519 5496 5465 5428 5397 5360 5340 5321 5304 5291 5291 5304 5319 5332 5330 5318 5289 5247 5206 5178 5159 5170 5192 5218 5238 5260 5287 5314 5337 5365 5397 5425 5454 5492 5530 5571 5605 5624 5632 5625 5616 5597 5573 5552 5542 5549 5559 5562 5560 5555 5551 5545 5534 5521 5513 5502 5498 5499 5505 5514 5510 5508 5511 5508 5492 5481 5473 5460 5454 5454 5451 5446 5434 5416 5396 5372 5346 5321 5302 5287 5272 5249 5211 5163 5134 5133 5134 5141 5164 5198 5227 5246 5258 5276 5287 5304 5326 5343 5355 5367 5392 5431 5474 5514 5540 5553 5555 5558 5572 5586 5597 5604 5613 5619 5626 5624 5608 5608 5639 5657 5662 5668 5675 5688 5699 5688 5661 5629 5619 5619 5632 5653 5677 5693 5699 5696 5692 5693 5704 5711 5699 5669 5634 5596 5567 5540 5523 5499 5473 5445 5410 5372 5347 5326 5324 5352 5389 5427 5472 5503 5516 5503 5478 5448 5402 5365 5321 5279 5239 5203 5167 5144 5157 5204 5256 5304 5350 5392 5411 5396 5367 5334 5310 5324 5350 5367 5371 5359 5350 5326 5299 5271
5315 5315 5323 5327 5333 5331 5333 5345 5358 5370 5377 5386 5393 5410 5435 5459 5486 5503 5513 5512 5496 5509 5530 5556 5579 5588 5569 5558 5568 5602 5622 5645 5679 5701 5709 5710 5711 5699 5672 5678 5712 5722 5728 5743 5766 5779 5785 5796 5791 5773 5791 5797 5792 5790 5792 5794 5789 5782 5778 5780 5790 5818 5823 5822 5818 5815 5804 5790 5775 5761 5742 5739 5737 5735 5739 5744 5754 5755 5760 5767 5774 5785 5802 5827 5839 5850 5856 5871 5902 5949 5991 6034 6067 6112 6160 6207 6249 6293 6326 6323 6285 6245 6213 6191 6174 6167 6148 6120 6104 6091 6085 6073 6070 6073 6078 6087 6094 6107 6117 6131 6139 6147 6155 6163 6171 6173 6167 6155 6139 6124 6088 6057 6053 6036 6029 6036 6056 6076 6081 6078 6076 6063 6019 5970 5922 5873 5828 5780 5740 5709 5674 5640 5610 5581 5538 5504 5475 5455 5439 5428 5424 5432 5438 5442 5442 5441 5439 5436 5424 5411 5403 5392 5380 5360 5349 5358 5363 5366 5366 5362 5361 5362 5361 5356 5347 5335 5322 5314 5306 5294 5281 5272 5265 5247 5233 5218 5202 5192 5181 5173 5162 5149 5137 5128 5119 5111 5107 5104 5101 5101 5101 5101 5101 5101 5101 5101 5101 5101 5101 5101 5101 5101 5101 5101 5101 5101 5106 5101 5110 5108 5112 5116 5115 5116 5119 5112 5111 5108 5109 5106 5106 5106 5107 5106 5107 5111 5111 5106 5106 5109 5111 5111 5116 5116 5115 5116 5118 5117 5121 5120 5123 5122 5124 5124 5128 5131 5131 5135 5139 5149 5160 5166 5181 5190 5204 5209 5223 5241 5255 5274 5303 5338 5362 5375 5378 5370 5369 5372 5372 5391 5429 5454 5454 5443 5427 5414 5403 5391 5380 5372 5373 5376 5378 5374 5356 5331 5301 5273 5257 5244 5237 5231 5224 5218 5218 5215 5214 5216 5220 5223 5228 5238 5258 5281 5303 5320 5332 5341 5346 5340 5332 5321 5319 5323 5325 5326 5333 5340 5347 5357 5368 5377 5386 5391 5400 5407 5413 5420 5424 5434 5441 5448 5459 5467 5476 5489 5503 5512 5519 5527 5534 5539 5549 5555 5563 5571 5578 5585 5595 5608 5619 5621 5612 5600 5583 5568 5558 5551 5552 5556 5560 5573 5589 5602 5610 5614 5615 5611 5597 5584 5581 5579 5580 5586 5591 5594 5592 5582 5570 5567 5559 5555 5555 5553 5548 5534 5516 5488 5453 5419 5383 5369 5359 5330 5298 5268 5260 5264 5270 5275 5272 5256 5220 5181 5162 5153 5171 5191 5218 5242 5270 5304 5330 5362 5394 5425 5453 5478 5507 5538 5577 5607 5609 5607 5602 5589 5571 5550 5532 5518 5516 5523 5525 5520 5518 5515 5507 5499 5489 5480 5476 5475 5481 5497 5517 5536 5551 5561 5559 5545 5540 5532 5515 5503 5488 5479 5478 5470 5449 5413 5371 5331 5293 5268 5251 5238 5220 5196 5156 5135 5137 5135 5145 5169 5201 5218 5224 5238 5253 5274 5282 5298 5313 5332 5354 5389 5428 5463 5509 5534 5554 5565 5574 5583 5597 5609 5618 5630 5639 5642 5641 5629 5627 5649 5662 5666 5674 5685 5696 5703 5701 5685 5667 5656 5664 5677 5693 5700 5699 5691 5670 5650 5645 5662 5676 5675 5649 5615 5576 5530 5500 5473 5457 5440 5419 5385 5356 5328 5307 5304 5331 5373 5420 5458 5484 5483 5461 5454 5447 5408 5373 5329 5286 5248 5206 5159 5129 5145 5192 5237 5274 5321 5355 5380 5373 5339 5306 5273 5280 5308 5322 5324 5316 5301 5285 5261 5236
