4578 4578 4580 4581 4582 4584 4584 4586 4586 4588 4591 4592 4591 4590 4592 4595 4594 4597 4597 4599 4607 4610 4610 4617 4622 4625 4634 4638 4639 4645 4650 4652 4659 4668 4678 4687 4694 4709 4719 4729 4740 4754 4769 4779 4804 4823 4848 4881 4910 4943 4967 4991 5003 5000 4979 4954 4936 4926 4931 4928 4918 4908 4912 4945 4985 5020 5063 5096 5113 5119 5108 5083 5056 5038 5027 5015 4999 4983 4968 4953 4934 4917 4893 4862 4837 4812 4784 4756 4733 4707 4697 4691 4685 4681 4679 4675 4670 4672 4673 4674 4674 4673 4672 4674 4673 4672 4674 4670 4665 4668 4670 4672 4686 4702 4726 4747 4752 4754 4760 4763 4771 4777 4767 4749 4733 4741 4759 4775 4788 4789 4782 4770 4760 4751 4745 4758 4781 4799 4827 4861 4896 4931 4954 4942 4899 4854 4814 4778 4745 4713 4683 4662 4637 4610 4598 4594 4602 4605 4599 4583 4565 4557 4550 4547 4542 4539 4534 4531 4529 4527 4520 4513 4513 4514 4510 4508 4506 4504 4501 4499 4498 4497 4495 4492 4491 4487 4488 4485 4482 4480 4479 4479 4474 4473 4474 4473 4472 4469 4468 4469 4468 4468 4468 4467 4468 4470 4471 4468 4469 4471 4465 4467 4466 4469 4468 4468 4469 4468 4468 4468 4467 4466 4467 4466 4467 4468 4466 4468 4466 4465 4471 4472 4468 4465 4464 4465 4463 4465 4466 4464 4465 4466 4467 4468 4465 4470 4466 4463 4463 4465 4464 4463 4460 4461 4464 4465 4465 4463 4463 4463 4466 4463 4461 4462 4460 4461 4463 4463 4462 4460 4459 4457 4462 4454 4456 4456 4454 4455 4454 4452 4454 4456 4455 4457 4456 4457 4455 4454 4456 4456 4456 4457 4453 4453 4449 4451 4451 4452 4448 4449 4447 4451 4452 4453 4452 4453 4449 4451 4449 4447 4448 4451 4449 4449 4449 4448 4448 4447 4446 4447 4448 4445 4445 4446 4445 4445 4444 4440 4442 4440 4440 4442 4438 4440 4439 4436 4434 4433 4432 4432 4432 4434 4433 4431 4431 4433 4431 4431 4432 4429 4430 4431 4429 4430 4429 4426 4424 4428 4426 4426 4425 4427 4426 4427 4428 4427 4428 4424 4424 4424 4424 4424 4424 4424 4424 4424 4424 4424 4424 4424 4424 4424 4424 4424 4424 4424 4424 4424 4424 4424 4424 4424 4424 4424 4424 4424 4424 4424 4424 4424 4424 4424 4424 4424 4424 4424 4424 4424 4424 4424 4424 4424 4424 4424 4424 4424 4424 4424 4424 4424 4424 4424 4424 4424 4424 4424 4424 4424 4424 4424 4424 4424 4424 4424 4424 4424 4424 4424 4424 4424 4424 4424 4424 4424 4424 4424 4424 4424 4424 4424 4424 4424 4424 4424 4424 4424 4424 4424 4425 4427 4428 4427 4427 4427 4423 4426 4425 4426 4429 4429 4426 4426 4429 4429 4427 4429 4433 4432 4428 4428 4426 4428 4431 4426 4430 4429 4428 4430 4429 4430 4430 4430 4428 4432 4431 4432 4435 4433 4435 4434 4435 4437 4436 4435 4437 4437 4438 4435 4438 4439 4438 4438 4439 4441 4441 4442 4443 4442 4441 4443 4444 4444 4445 4445 4445 4448 4450 4449 4449 4450 4450 4450 4452 4453 4453 4453 4451 4452 4452 4455 4456 4456 4457 4457 4457 4460 4457 4460 4460 4461 4463 4462 4461 4463 4462 4461 4463 4465 4463 4467 4466 4465 4465 4467 4466 4467 4469 4469 4469 4470 4471 4472 4471 4471 4473 4472 4472 4476 4474 4476 4479 4476 4477 4477 4475 4477 4479 4478 4478 4479 4480 4480 4480 4483 4484 4483 4486
4581 4584 4586 4583 4584 4586 4588 4589 4589 4590 4593 4594 4595 4595 4597 4597 4598 4600 4603 4608 4611 4613 4616 4619 4624 4630 4637 4642 4647 4651 4657 4661 4662 4669 4678 4686 4694 4707 4720 4733 4743 4756 4766 4784 4809 4828 4853 4880 4909 4938 4971 5000 5021 5029 5014 4994 4972 4971 4975 4974 4962 4945 4932 4956 4984 5018 5060 5108 5137 5148 5139 5119 5099 5087 5077 5065 5050 5027 5007 4986 4961 4934 4895 4862 4825 4801 4773 4751 4730 4711 4698 4691 4689 4684 4683 4682 4680 4679 4681 4680 4681 4680 4680 4682 4682 4680 4679 4680 4684 4683 4684 4679 4687 4699 4717 4731 4747 4761 4775 4786 4795 4803 4796 4777 4758 4760 4772 4796 4814 4827 4828 4816 4797 4783 4777 4788 4816 4837 4860 4886 4924 4945 4947 4925 4893 4859 4833 4804 4774 4744 4716 4685 4645 4610 4598 4587 4578 4580 4576 4569 4560 4557 4550 4549 4544 4537 4533 4530 4530 4527 4524 4521 4517 4514 4511 4509 4508 4505 4502 4499 4499 4498 4495 4494 4492 4492 4487 4485 4482 4481 4481 4480 4475 4473 4474 4474 4471 4471 4470 4469 4469 4470 4470 4470 4470 4469 4468 4466 4468 4469 4466 4468 4467 4467 4469 4465 4469 4466 4463 4469 4468 4467 4468 4465 4464 4467 4468 4467 4466 4470 4470 4470 4468 4465 4464 4466 4467 4466 4465 4465 4464 4464 4468 4468 4466 4465 4466 4463 4465 4464 4466 4464 4466 4464 4464 4465 4466 4462 4464 4462 4462 4462 4462 4462 4462 4458 4463 4464 4462 4458 4458 4458 4458 4458 4458 4454 4455 4455 4455 4451 4455 4452 4452 4454 4455 4453 4455 4452 4453 4453 4454 4458 4455 4452 4448 4452 4452 4451 4449 4446 4446 4448 4450 4452 4451 4453 4451 4448 4447 4446 4448 4450 4447 4448 4448 4448 4448 4445 4447 4445 4447 4447 4447 4444 4443 4444 4445 4443 4441 4441 4440 4438 4438 4438 4436 4434 4434 4435 4431 4432 4432 4434 4433 4433 4434 4432 4432 4430 4431 4431 4431 4431 4429 4432 4427 4424 4427 4431 4427 4427 4425 4427 4427 4428 4426 4425 4427 4424 4424 4424 4424 4424 4424 4424 4424 4424 4424 4424 4424 4424 4424 4424 4424 4424 4424 4424 4424 4424 4424 4424 4424 4424 4424 4424 4424 4424 4424 4424 4424 4424 4424 4424 4424 4424 4424 4424 4424 4424 4424 4424 4424 4424 4424 4424 4424 4424 4424 4424 4424 4424 4424 4424 4424 4424 4424 4424 4424 4424 4424 4424 4424 4424 4424 4424 4424 4424 4424 4424 4424 4424 4424 4424 4424 4424 4424 4424 4424 4424 4424 4424 4424 4424 4424 4424 4424 4424 4424 4425 4426 4427 4425 4426 4426 4427 4426 4427 4427 4431 4429 4428 4431 4430 4428 4430 4430 4431 4430 4430 4428 4427 4429 4429 4429 4427 4426 4429 4429 4429 4430 4429 4430 4429 4430 4432 4429 4430 4435 4433 4437 4435 4436 4434 4436 4436 4437 4437 4437 4436 4437 4438 4439 4440 4439 4440 4441 4441 4442 4443 4442 4444 4444 4443 4445 4445 4445 4447 4447 4446 4450 4452 4451 4450 4452 4453 4452 4453 4453 4452 4454 4456 4455 4456 4457 4455 4457 4460 4461 4461 4458 4459 4461 4461 4463 4465 4465 4463 4465 4463 4464 4466 4465 4466 4468 4467 4470 4470 4471 4469 4470 4470 4472 4472 4472 4472 4473 4474 4473 4477 4477 4477 4477 4476 4478 4477 4474 4478 4475 4477 4479 4479 4478 4481 4483 4483 4483 4481 4481
4581 4579 4583 4582 4588 4590 4589 4590 4592 4593 4596 4596 4598 4597 4600 4602 4602 4606 4608 4609 4615 4619 4621 4624 4632 4639 4641 4650 4653 4659 4665 4670 4673 4678 4685 4692 4699 4709 4722 4734 4751 4768 4781 4800 4819 4844 4872 4899 4923 4955 4987 5014 5044 5058 5049 5025 5008 5006 5019 5019 5006 4989 4977 4982 5009 5046 5084 5126 5156 5179 5169 5154 5138 5128 5115 5100 5084 5057 5033 5002 4974 4942 4905 4866 4832 4803 4775 4750 4729 4711 4703 4696 4693 4689 4690 4687 4688 4687 4689 4687 4690 4691 4689 4689 4688 4689 4689 4689 4705 4714 4703 4695 4693 4698 4711 4725 4739 4759 4779 4797 4814 4824 4819 4804 4790 4785 4799 4820 4840 4864 4871 4857 4840 4825 4811 4817 4843 4861 4878 4894 4910 4914 4907 4884 4866 4854 4846 4823 4794 4765 4727 4684 4637 4604 4597 4585 4577 4574 4569 4567 4561 4556 4551 4548 4544 4542 4538 4531 4531 4530 4526 4521 4520 4516 4514 4511 4508 4507 4503 4503 4502 4500 4495 4495 4493 4494 4492 4484 4485 4482 4481 4479 4477 4476 4475 4474 4471 4470 4470 4470 4471 4468 4468 4467 4470 4471 4467 4468 4469 4468 4471 4468 4469 4468 4468 4466 4468 4469 4471 4470 4466 4463 4465 4467 4465 4463 4469 4469 4467 4470 4470 4468 4464 4465 4467 4466 4467 4467 4467 4470 4468 4466 4466 4467 4463 4467 4469 4464 4467 4466 4466 4466 4464 4463 4462 4464 4465 4461 4462 4461 4460 4463 4462 4463 4461 4460 4463 4462 4464 4462 4459 4460 4459 4459 4455 4453 4457 4455 4460 4457 4454 4455 4456 4455 4458 4455 4456 4457 4459 4456 4456 4456 4456 4456 4451 4450 4450 4448 4449 4448 4447 4447 4444 4448 4451 4450 4448 4443 4444 4448 4449 4445 4447 4448 4446 4445 4446 4444 4447 4448 4447 4447 4448 4443 4444 4445 4444 4445 4443 4442 4437 4439 4440 4437 4436 4433 4435 4434 4430 4432 4433 4432 4431 4434 4434 4430 4433 4433 4432 4432 4431 4429 4430 4430 4429 4429 4426 4427 4428 4429 4428 4429 4425 4426 4426 4427 4427 4424 4424 4424 4424 4424 4424 4424 4424 4424 4424 4424 4424 4424 4424 4424 4424 4424 4424 4424 4424 4424 4424 4424 4424 4424 4424 4424 4424 4424 4424 4424 4424 4424 4424 4424 4424 4424 4424 4424 4424 4424 4424 4424 4424 4424 4424 4424 4424 4424 4424 4424 4424 4424 4424 4424 4424 4424 4424 4424 4424 4424 4424 4424 4424 4424 4424 4424 4424 4424 4424 4424 4424 4424 4424 4424 4424 4424 4424 4424 4424 4424 4424 4424 4424 4424 4424 4424 4424 4424 4426 4426 4425 4427 4425 4427 4427 4426 4424 4426 4428 4429 4429 4429 4428 4428 4427 4425 4429 4432 4428 4432 4430 4430 4427 4430 4429 4428 4428 4430 4430 4431 4429 4429 4430 4431 4431 4431 4429 4431 4434 4434 4433 4434 4434 4433 4435 4436 4434 4436 4432 4436 4438 4440 4439 4440 4440 4440 4443 4443 4440 4441 4443 4442 4446 4445 4444 4446 4448 4447 4447 4448 4449 4451 4450 4450 4451 4452 4450 4450 4453 4453 4453 4455 4454 4456 4457 4458 4457 4459 4461 4459 4459 4459 4462 4462 4462 4464 4466 4466 4465 4463 4464 4466 4467 4467 4467 4468 4469 4469 4469 4469 4471 4472 4473 4473 4472 4472 4474 4473 4474 4478 4478 4478 4476 4477 4477 4478 4478 4481 4478 4478 4481 4482 4483 4483 4484 4482 4482 4482 4481
4586 4584 4586 4587 4589 4590 4593 4593 4593 4595 4599 4601 4598 4599 4602 4606 4607 4605 4608 4610 4613 4620 4625 4628 4637 4642 4648 4653 4661 4667 4670 4676 4683 4686 4694 4700 4706 4718 4733 4746 4762 4779 4796 4814 4834 4857 4888 4914 4938 4965 4996 5024 5053 5076 5076 5057 5044 5040 5055 5061 5053 5036 5025 5019 5039 5080 5119 5153 5182 5201 5192 5172 5152 5137 5117 5098 5075 5053 5031 5004 4975 4945 4909 4877 4844 4813 4779 4749 4725 4711 4703 4701 4697 4697 4695 4692 4693 4693 4695 4697 4698 4699 4698 4697 4698 4695 4695 4699 4715 4741 4740 4726 4712 4712 4720 4730 4740 4756 4778 4800 4818 4833 4838 4834 4826 4822 4832 4853 4874 4900 4908 4896 4886 4869 4850 4844 4852 4856 4864 4870 4878 4875 4861 4841 4827 4819 4810 4797 4774 4747 4710 4667 4621 4596 4591 4585 4578 4574 4571 4569 4563 4557 4553 4548 4547 4542 4541 4535 4531 4529 4525 4526 4522 4518 4515 4512 4511 4508 4508 4504 4502 4500 4498 4495 4491 4492 4491 4486 4486 4481 4481 4482 4479 4478 4476 4472 4473 4473 4468 4468 4468 4468 4468 4467 4467 4467 4468 4467 4467 4466 4466 4467 4470 4468 4465 4466 4468 4466 4471 4471 4468 4466 4463 4469 4468 4466 4470 4465 4467 4467 4470 4468 4464 4466 4466 4465 4466 4466 4466 4469 4465 4467 4466 4464 4465 4467 4465 4465 4467 4466 4465 4466 4465 4467 4466 4467 4464 4462 4463 4461 4463 4467 4464 4464 4463 4463 4461 4461 4463 4461 4458 4458 4456 4457 4454 4459 4458 4458 4459 4461 4455 4454 4454 4457 4457 4455 4455 4456 4455 4455 4455 4457 4454 4455 4450 4453 4452 4450 4448 4449 4449 4450 4450 4449 4450 4447 4448 4446 4446 4444 4444 4440 4442 4446 4442 4444 4446 4447 4443 4445 4447 4445 4446 4448 4446 4445 4444 4446 4445 4441 4440 4440 4439 4440 4435 4432 4433 4433 4431 4433 4434 4436 4433 4434 4434 4435 4436 4434 4434 4432 4432 4430 4428 4430 4431 4430 4429 4427 4426 4428 4427 4424 4424 4423 4426 4426 4428 4426 4424 4424 4424 4424 4424 4424 4424 4424 4424 4424 4424 4424 4424 4424 4424 4424 4424 4424 4424 4424 4424 4424 4424 4424 4424 4424 4424 4424 4424 4424 4424 4424 4424 4424 4424 4424 4424 4424 4424 4424 4424 4424 4424 4424 4424 4424 4424 4424 4424 4424 4424 4424 4424 4424 4424 4424 4424 4424 4424 4424 4424 4424 4424 4424 4424 4424 4424 4424 4424 4424 4424 4424 4424 4424 4424 4424 4424 4424 4424 4424 4424 4424 4424 4424 4424 4424 4424 4424 4425 4425 4425 4425 4424 4425 4427 4425 4425 4427 4427 4427 4429 4428 4429 4431 4428 4426 4428 4430 4428 4428 4428 4428 4428 4429 4428 4428 4428 4429 4427 4429 4430 4429 4431 4432 4432 4433 4430 4431 4432 4435 4433 4433 4434 4436 4437 4437 4438 4438 4436 4440 4440 4440 4441 4441 4442 4440 4441 4444 4445 4444 4443 4444 4446 4447 4446 4445 4447 4446 4448 4450 4452 4453 4451 4451 4451 4451 4451 4451 4452 4453 4454 4454 4455 4454 4457 4462 4459 4458 4459 4460 4463 4462 4463 4463 4461 4464 4465 4465 4465 4463 4464 4464 4467 4468 4469 4470 4471 4471 4472 4470 4470 4471 4471 4472 4473 4473 4474 4475 4475 4478 4479 4477 4478 4477 4477 4477 4477 4478 4481 4482 4482 4480 4480 4483 4481 4482 4483 4482 4482
4587 4590 4590 4590 4591 4593 4592 4594 4597 4600 4601 4602 4601 4606 4608 4609 4609 4613 4615 4616 4618 4622 4631 4634 4641 4646 4652 4658 4666 4674 4678 4682 4691 4698 4702 4708 4713 4726 4742 4752 4766 4787 4807 4831 4852 4871 4896 4920 4942 4963 4987 5013 5038 5067 5084 5084 5074 5076 5090 5096 5095 5085 5082 5077 5082 5109 5152 5191 5206 5210 5191 5164 5135 5112 5093 5071 5049 5025 5001 4977 4952 4930 4905 4878 4848 4811 4781 4754 4729 4718 4713 4706 4703 4703 4702 4701 4700 4700 4702 4702 4705 4707 4709 4708 4707 4708 4705 4707 4717 4739 4752 4749 4738 4737 4741 4750 4761 4772 4785 4804 4824 4845 4859 4868 4869 4867 4871 4888 4914 4934 4943 4933 4923 4905 4878 4858 4848 4840 4842 4842 4843 4833 4818 4803 4791 4781 4767 4753 4731 4707 4677 4639 4608 4591 4586 4590 4581 4574 4571 4569 4565 4561 4556 4550 4547 4540 4538 4537 4530 4530 4526 4525 4523 4520 4519 4515 4514 4513 4507 4507 4504 4498 4498 4498 4494 4495 4492 4487 4487 4486 4482 4482 4480 4479 4476 4473 4472 4472 4469 4469 4468 4472 4468 4466 4467 4468 4469 4469 4469 4468 4469 4467 4466 4467 4469 4469 4467 4465 4471 4468 4467 4468 4467 4465 4468 4471 4471 4469 4471 4467 4465 4470 4467 4470 4466 4466 4466 4469 4472 4469 4462 4467 4465 4467 4468 4466 4468 4468 4466 4465 4465 4470 4469 4469 4464 4463 4464 4465 4466 4465 4465 4466 4466 4463 4465 4466 4464 4466 4463 4461 4459 4461 4458 4457 4454 4459 4457 4457 4459 4458 4456 4457 4456 4454 4454 4455 4456 4455 4454 4456 4455 4455 4453 4454 4452 4452 4452 4451 4451 4449 4450 4447 4449 4450 4450 4449 4450 4447 4443 4445 4446 4441 4441 4444 4443 4443 4442 4444 4445 4444 4445 4445 4445 4446 4446 4446 4445 4441 4441 4442 4442 4441 4437 4437 4435 4433 4435 4433 4431 4432 4434 4434 4434 4435 4434 4436 4438 4436 4435 4433 4433 4431 4430 4430 4428 4428 4428 4425 4427 4428 4428 4424 4426 4424 4425 4423 4425 4426 4424 4424 4424 4424 4424 4424 4424 4424 4424 4424 4424 4424 4424 4424 4424 4424 4424 4424 4424 4424 4424 4424 4424 4424 4424 4424 4424 4424 4424 4424 4424 4424 4424 4424 4424 4424 4424 4424 4424 4424 4424 4424 4424 4424 4424 4424 4424 4424 4424 4424 4424 4424 4424 4424 4424 4424 4424 4424 4424 4424 4424 4424 4424 4424 4424 4424 4424 4424 4424 4424 4424 4424 4424 4424 4424 4424 4424 4424 4424 4424 4424 4424 4424 4424 4424 4424 4424 4426 4425 4425 4426 4426 4426 4424 4424 4424 4426 4427 4427 4424 4428 4426 4429 4431 4424 4422 4428 4430 4427 4426 4428 4429 4426 4427 4427 4429 4429 4427 4428 4427 4430 4432 4432 4430 4431 4431 4433 4432 4432 4434 4433 4434 4434 4436 4435 4437 4436 4438 4437 4440 4442 4438 4437 4440 4442 4440 4441 4443 4444 4444 4445 4445 4445 4446 4445 4442 4443 4448 4448 4448 4452 4449 4449 4452 4452 4450 4451 4452 4453 4456 4454 4456 4457 4457 4458 4461 4461 4461 4462 4461 4463 4466 4465 4463 4463 4463 4464 4463 4464 4464 4465 4467 4469 4467 4469 4469 4471 4471 4472 4472 4471 4473 4471 4472 4472 4474 4476 4477 4478 4479 4477 4476 4478 4479 4479 4479 4481 4481 4482 4483 4484 4481 4482 4481 4480 4483 4483 4483 4485
4588 4590 4592 4595 4594 4596 4597 4600 4601 4603 4606 4609 4610 4609 4611 4612 4614 4615 4619 4618 4622 4626 4633 4639 4645 4651 4657 4666 4672 4680 4687 4691 4695 4705 4711 4716 4722 4732 4743 4757 4769 4788 4810 4832 4857 4881 4901 4917 4934 4948 4964 4993 5019 5042 5069 5082 5081 5083 5099 5121 5133 5140 5135 5137 5138 5150 5181 5211 5218 5199 5175 5141 5113 5085 5060 5039 5018 4995 4973 4949 4927 4908 4891 4868 4841 4807 4780 4755 4728 4721 4715 4712 4710 4709 4708 4708 4709 4709 4711 4712 4713 4715 4714 4715 4716 4715 4712 4713 4717 4732 4743 4754 4763 4768 4773 4778 4790 4801 4809 4823 4839 4861 4882 4902 4912 4916 4919 4927 4935 4944 4941 4934 4922 4900 4874 4850 4834 4824 4820 4811 4805 4793 4782 4769 4760 4751 4737 4719 4701 4679 4655 4627 4608 4599 4593 4589 4582 4579 4575 4569 4562 4560 4555 4551 4546 4545 4538 4535 4531 4528 4528 4528 4524 4522 4521 4518 4515 4514 4510 4510 4507 4501 4499 4501 4497 4492 4492 4491 4490 4487 4485 4481 4479 4477 4474 4474 4469 4468 4468 4471 4469 4470 4467 4467 4469 4467 4469 4468 4469 4471 4468 4465 4464 4467 4467 4467 4466 4466 4467 4470 4469 4469 4470 4470 4471 4468 4465 4470 4472 4472 4469 4472 4465 4465 4465 4469 4466 4468 4466 4465 4467 4468 4466 4469 4468 4468 4468 4468 4467 4465 4466 4467 4470 4465 4465 4467 4469 4467 4467 4465 4464 4467 4469 4464 4465 4464 4462 4462 4463 4461 4462 4462 4461 4461 4459 4457 4455 4456 4457 4454 4456 4455 4454 4456 4458 4456 4454 4455 4455 4456 4456 4457 4453 4456 4452 4451 4453 4456 4453 4453 4451 4449 4449 4448 4445 4446 4446 4445 4444 4443 4444 4443 4445 4445 4443 4442 4442 4445 4444 4442 4445 4443 4441 4444 4445 4446 4445 4444 4443 4443 4441 4441 4442 4439 4435 4436 4435 4434 4434 4435 4434 4435 4435 4433 4435 4435 4438 4439 4437 4435 4431 4429 4428 4427 4428 4429 4429 4427 4428 4428 4428 4428 4425 4424 4423 4424 4425 4425 4424 4424 4424 4424 4424 4424 4424 4424 4424 4424 4424 4424 4424 4424 4424 4424 4424 4424 4424 4424 4424 4424 4424 4424 4424 4424 4424 4424 4424 4424 4424 4424 4424 4424 4424 4424 4424 4424 4424 4424 4424 4424 4424 4424 4424 4424 4424 4424 4424 4424 4424 4424 4424 4424 4424 4424 4424 4424 4424 4424 4424 4424 4424 4424 4424 4424 4424 4424 4424 4424 4424 4424 4424 4424 4424 4424 4424 4424 4424 4424 4424 4424 4424 4424 4424 4424 4424 4428 4425 4426 4427 4428 4429 4428 4426 4421 4425 4430 4431 4427 4429 4430 4432 4429 4423 4425 4426 4428 4428 4426 4425 4427 4428 4427 4427 4427 4429 4428 4428 4427 4427 4430 4429 4431 4432 4431 4431 4430 4434 4436 4433 4435 4437 4437 4435 4439 4440 4439 4438 4439 4440 4439 4440 4439 4440 4442 4442 4442 4444 4444 4442 4443 4444 4445 4445 4444 4447 4448 4451 4450 4451 4451 4451 4453 4451 4450 4450 4452 4453 4454 4453 4455 4458 4458 4458 4460 4460 4458 4461 4460 4462 4464 4466 4464 4465 4467 4465 4466 4464 4465 4462 4466 4467 4468 4469 4467 4469 4470 4471 4471 4472 4471 4473 4474 4474 4472 4473 4476 4477 4479 4478 4477 4479 4480 4479 4479 4479 4481 4481 4485 4484 4483 4480 4479 4481 4484 4482 4485 4485
4593 4591 4592 4596 4598 4599 4602 4604 4603 4607 4606 4610 4613 4612 4615 4617 4620 4619 4621 4624 4626 4626 4634 4642 4646 4650 4660 4665 4675 4683 4689 4696 4704 4709 4716 4722 4727 4738 4749 4759 4772 4788 4809 4829 4848 4870 4890 4901 4903 4924 4944 4970 4992 5013 5029 5043 5048 5058 5078 5113 5151 5174 5183 5189 5196 5202 5219 5229 5221 5200 5165 5128 5095 5058 5033 5011 4992 4971 4948 4927 4908 4888 4871 4853 4830 4805 4779 4758 4734 4725 4722 4719 4715 4716 4718 4714 4715 4719 4719 4721 4723 4723 4723 4726 4726 4727 4723 4723 4725 4728 4740 4755 4773 4792 4807 4815 4827 4833 4841 4851 4868 4887 4907 4927 4944 4955 4954 4946 4934 4931 4926 4917 4905 4889 4864 4839 4821 4805 4793 4782 4774 4764 4754 4743 4734 4727 4715 4696 4679 4666 4639 4618 4608 4601 4596 4590 4584 4579 4577 4569 4567 4564 4561 4556 4550 4546 4541 4538 4536 4532 4531 4531 4526 4524 4523 4522 4519 4517 4516 4512 4507 4504 4499 4499 4496 4493 4492 4492 4488 4487 4486 4483 4481 4477 4476 4477 4472 4467 4466 4467 4468 4470 4466 4467 4468 4467 4467 4468 4468 4470 4470 4468 4465 4467 4467 4467 4466 4468 4468 4469 4467 4469 4468 4474 4469 4470 4466 4466 4470 4466 4467 4469 4463 4467 4468 4470 4467 4470 4469 4470 4468 4467 4471 4470 4467 4468 4468 4468 4469 4466 4468 4468 4468 4466 4464 4465 4469 4466 4464 4468 4467 4466 4465 4464 4466 4468 4466 4463 4462 4462 4462 4459 4463 4461 4457 4457 4456 4456 4455 4458 4459 4455 4455 4455 4455 4455 4455 4454 4454 4455 4455 4453 4453 4455 4453 4453 4453 4455 4449 4449 4449 4448 4448 4448 4446 4445 4446 4444 4446 4441 4442 4443 4443 4442 4444 4444 4443 4443 4443 4443 4442 4442 4439 4443 4443 4445 4446 4444 4446 4442 4442 4441 4439 4437 4436 4435 4433 4432 4433 4432 4431 4431 4432 4432 4432 4432 4437 4437 4436 4436 4432 4428 4429 4429 4430 4430 4429 4428 4427 4427 4427 4428 4427 4427 4425 4425 4427 4424 4424 4424 4424 4424 4424 4424 4424 4424 4424 4424 4424 4424 4424 4424 4424 4424 4424 4424 4424 4424 4424 4424 4424 4424 4424 4424 4424 4424 4424 4424 4424 4424 4424 4424 4424 4424 4424 4424 4424 4424 4424 4424 4424 4424 4424 4424 4424 4424 4424 4424 4424 4424 4424 4424 4424 4424 4424 4424 4424 4424 4424 4424 4424 4424 4424 4424 4424 4424 4424 4424 4424 4424 4424 4424 4424 4424 4424 4424 4424 4424 4424 4424 4424 4424 4424 4424 4424 4426 4425 4426 4425 4427 4428 4429 4427 4426 4429 4431 4430 4427 4428 4427 4427 4426 4426 4428 4428 4428 4429 4428 4427 4428 4429 4428 4429 4427 4428 4429 4431 4428 4427 4431 4431 4433 4432 4431 4433 4432 4434 4435 4433 4435 4435 4436 4436 4437 4438 4438 4440 4439 4439 4440 4439 4440 4440 4443 4443 4443 4442 4445 4444 4445 4445 4446 4445 4447 4448 4449 4450 4450 4451 4454 4451 4451 4452 4450 4453 4452 4453 4455 4454 4457 4457 4459 4461 4460 4460 4460 4460 4462 4462 4463 4462 4462 4465 4465 4465 4466 4465 4466 4464 4467 4470 4468 4470 4469 4470 4470 4471 4471 4470 4472 4474 4475 4474 4473 4477 4477 4477 4476 4477 4477 4477 4481 4480 4481 4481 4481 4482 4481 4482 4482 4481 4482 4480 4485 4484 4486 4488
4595 4591 4595 4597 4598 4600 4600 4604 4605 4608 4610 4614 4612 4615 4620 4619 4622 4622 4623 4624 4629 4631 4635 4643 4650 4655 4661 4669 4680 4685 4694 4700 4705 4713 4717 4727 4735 4744 4752 4761 4771 4781 4793 4812 4832 4848 4865 4882 4889 4889 4918 4941 4962 4977 4987 4991 5000 5020 5051 5089 5135 5174 5210 5234 5250 5254 5258 5251 5226 5194 5159 5127 5091 5054 5020 4992 4967 4945 4925 4905 4888 4866 4856 4840 4819 4801 4779 4761 4746 4731 4731 4725 4721 4719 4721 4720 4723 4728 4729 4732 4733 4733 4734 4735 4738 4735 4732 4733 4735 4735 4740 4752 4768 4792 4819 4839 4854 4861 4868 4882 4902 4917 4930 4949 4960 4966 4958 4940 4923 4911 4900 4891 4881 4866 4847 4825 4804 4785 4768 4755 4748 4736 4722 4710 4709 4705 4696 4681 4662 4649 4630 4616 4609 4601 4597 4592 4588 4584 4581 4576 4574 4569 4561 4556 4555 4553 4548 4544 4539 4537 4536 4533 4530 4527 4524 4523 4519 4517 4515 4512 4507 4506 4503 4502 4498 4497 4494 4492 4489 4493 4488 4485 4483 4480 4475 4474 4472 4472 4471 4471 4468 4471 4469 4466 4468 4466 4466 4468 4470 4466 4469 4469 4467 4468 4467 4469 4467 4468 4467 4469 4472 4470 4472 4474 4470 4470 4469 4468 4468 4468 4469 4468 4470 4469 4468 4464 4466 4469 4472 4473 4474 4471 4469 4469 4469 4469 4469 4470 4468 4468 4466 4468 4467 4467 4468 4470 4468 4467 4466 4466 4469 4465 4469 4469 4469 4466 4465 4463 4464 4463 4464 4462 4459 4461 4461 4460 4460 4456 4457 4457 4455 4455 4455 4455 4456 4453 4455 4457 4454 4453 4453 4452 4455 4454 4451 4454 4455 4452 4449 4449 4447 4448 4447 4446 4445 4447 4449 4445 4445 4443 4443 4442 4443 4443 4442 4441 4441 4441 4442 4440 4442 4444 4441 4443 4444 4443 4447 4445 4443 4441 4442 4442 4440 4438 4437 4437 4433 4431 4432 4433 4433 4432 4432 4431 4432 4433 4435 4434 4432 4434 4432 4432 4432 4429 4429 4429 4429 4428 4429 4428 4428 4426 4429 4430 4427 4426 4430 4424 4424 4424 4424 4424 4424 4424 4424 4424 4424 4424 4424 4424 4424 4424 4424 4424 4424 4424 4424 4424 4424 4424 4424 4424 4424 4424 4424 4424 4424 4424 4424 4424 4424 4424 4424 4424 4424 4424 4424 4424 4424 4424 4424 4424 4424 4424 4424 4424 4424 4424 4424 4424 4424 4424 4424 4424 4424 4424 4424 4424 4424 4424 4424 4424 4424 4424 4424 4424 4424 4424 4424 4424 4424 4424 4424 4424 4424 4424 4424 4424 4424 4424 4424 4424 4424 4424 4425 4425 4427 4425 4425 4427 4427 4427 4426 4427 4428 4428 4429 4429 4425 4426 4426 4428 4426 4428 4430 4429 4433 4432 4429 4428 4429 4426 4425 4426 4431 4428 4430 4430 4430 4433 4432 4431 4429 4432 4433 4431 4434 4432 4432 4434 4433 4438 4437 4436 4434 4433 4438 4437 4438 4439 4440 4440 4444 4445 4442 4441 4445 4446 4443 4444 4444 4446 4444 4444 4449 4449 4449 4449 4451 4450 4448 4451 4453 4450 4453 4451 4454 4455 4456 4455 4455 4458 4461 4459 4463 4462 4461 4464 4463 4463 4462 4463 4467 4467 4465 4466 4464 4465 4467 4467 4470 4470 4469 4469 4469 4472 4473 4472 4473 4473 4473 4472 4474 4474 4477 4478 4478 4476 4479 4480 4479 4481 4483 4482 4484 4482 4482 4482 4483 4481 4480 4481 4483 4486 4483 4486 4486
4597 4596 4598 4600 4601 4602 4603 4604 4606 4612 4616 4618 4618 4621 4622 4624 4623 4623 4628 4629 4629 4631 4640 4645 4653 4657 4664 4671 4678 4686 4694 4699 4708 4717 4724 4726 4737 4745 4754 4762 4767 4774 4782 4793 4809 4820 4834 4853 4863 4863 4887 4905 4921 4935 4942 4953 4971 4997 5030 5066 5111 5157 5200 5241 5269 5286 5286 5259 5228 5193 5162 5129 5094 5057 5020 4990 4960 4935 4910 4887 4864 4854 4839 4830 4813 4795 4777 4759 4744 4740 4741 4740 4734 4730 4731 4730 4733 4734 4737 4739 4742 4743 4743 4744 4745 4743 4740 4740 4742 4748 4746 4751 4760 4782 4804 4826 4845 4864 4882 4900 4925 4938 4949 4961 4959 4951 4938 4922 4903 4890 4877 4865 4850 4841 4826 4806 4786 4763 4745 4736 4730 4708 4700 4692 4688 4682 4674 4658 4644 4634 4620 4615 4607 4604 4601 4597 4591 4589 4588 4583 4581 4574 4566 4564 4561 4556 4552 4547 4544 4541 4541 4537 4534 4532 4528 4526 4521 4519 4516 4517 4510 4509 4504 4505 4500 4500 4500 4497 4491 4492 4490 4487 4484 4483 4478 4479 4473 4474 4472 4469 4471 4471 4469 4467 4466 4469 4470 4469 4470 4467 4468 4468 4467 4468 4470 4470 4471 4468 4465 4469 4470 4473 4469 4472 4470 4472 4470 4469 4467 4467 4470 4469 4471 4471 4467 4469 4469 4470 4466 4469 4469 4468 4469 4468 4469 4465 4471 4472 4468 4474 4467 4465 4467 4465 4467 4465 4468 4467 4468 4466 4467 4467 4469 4467 4466 4466 4464 4465 4464 4459 4461 4463 4461 4461 4461 4458 4457 4456 4456 4454 4454 4455 4460 4457 4454 4453 4455 4457 4453 4453 4453 4454 4454 4452 4450 4451 4452 4449 4448 4447 4446 4444 4445 4447 4444 4446 4446 4444 4444 4444 4443 4442 4441 4442 4443 4442 4444 4443 4444 4441 4441 4442 4442 4441 4441 4443 4445 4444 4444 4444 4443 4440 4441 4441 4438 4434 4435 4434 4432 4431 4433 4431 4432 4433 4433 4433 4436 4435 4434 4434 4430 4431 4432 4433 4429 4430 4430 4430 4429 4428 4428 4426 4426 4427 4426 4424 4424 4424 4424 4424 4424 4424 4424 4424 4424 4424 4424 4424 4424 4424 4424 4424 4424 4424 4424 4424 4424 4424 4424 4424 4424 4424 4424 4424 4424 4424 4424 4424 4424 4424 4424 4424 4424 4424 4424 4424 4424 4424 4424 4424 4424 4424 4424 4424 4424 4424 4424 4424 4424 4424 4424 4424 4424 4424 4424 4424 4424 4424 4424 4424 4424 4424 4424 4424 4424 4424 4424 4424 4424 4424 4424 4424 4424 4424 4424 4424 4424 4424 4424 4424 4424 4424 4424 4424 4427 4427 4424 4426 4424 4427 4424 4425 4426 4428 4428 4428 4431 4426 4424 4425 4428 4427 4425 4426 4427 4428 4429 4431 4428 4428 4429 4428 4428 4430 4432 4429 4430 4431 4430 4431 4431 4430 4431 4431 4433 4432 4432 4433 4434 4435 4434 4434 4438 4441 4437 4439 4437 4439 4438 4438 4441 4442 4444 4444 4440 4439 4442 4446 4446 4445 4445 4445 4446 4446 4448 4447 4448 4451 4452 4451 4449 4450 4450 4450 4452 4452 4455 4456 4455 4456 4458 4459 4460 4460 4462 4463 4463 4464 4464 4463 4464 4462 4466 4467 4466 4465 4464 4466 4467 4468 4469 4468 4467 4471 4471 4471 4473 4474 4474 4473 4474 4475 4475 4478 4478 4475 4475 4477 4478 4476 4479 4482 4482 4482 4483 4483 4481 4484 4482 4481 4482 4483 4485 4487 4483 4487 4488
4598 4598 4598 4599 4603 4604 4606 4607 4611 4617 4618 4621 4621 4622 4625 4625 4626 4629 4630 4632 4633 4638 4643 4645 4653 4658 4665 4671 4681 4688 4695 4701 4708 4714 4719 4726 4736 4745 4753 4763 4767 4775 4784 4792 4800 4812 4822 4835 4847 4855 4865 4877 4897 4913 4937 4962 4988 5019 5044 5070 5096 5137 5176 5216 5256 5283 5282 5249 5216 5187 5161 5133 5097 5063 5030 5000 4971 4944 4916 4885 4859 4837 4826 4814 4806 4788 4772 4759 4750 4753 4760 4763 4760 4748 4741 4737 4739 4743 4745 4747 4751 4750 4752 4752 4752 4751 4749 4747 4746 4752 4755 4762 4770 4782 4789 4801 4820 4844 4870 4896 4922 4936 4945 4951 4944 4929 4915 4902 4881 4865 4853 4837 4829 4820 4805 4787 4767 4745 4734 4719 4706 4693 4683 4681 4677 4668 4657 4645 4637 4633 4625 4622 4616 4613 4609 4604 4599 4598 4595 4588 4584 4579 4572 4568 4565 4561 4555 4551 4547 4542 4545 4541 4534 4531 4530 4526 4524 4519 4517 4517 4511 4511 4507 4505 4503 4504 4502 4499 4496 4494 4492 4492 4488 4483 4484 4483 4479 4478 4475 4473 4472 4472 4470 4468 4466 4468 4468 4467 4469 4470 4468 4468 4467 4468 4470 4470 4467 4467 4469 4469 4467 4469 4468 4471 4470 4471 4470 4472 4471 4469 4472 4471 4469 4470 4470 4472 4470 4468 4469 4472 4471 4470 4470 4471 4468 4466 4471 4473 4471 4468 4470 4468 4469 4469 4466 4465 4469 4471 4467 4467 4469 4467 4466 4465 4465 4465 4467 4465 4466 4465 4463 4461 4463 4463 4463 4463 4460 4458 4460 4457 4455 4458 4459 4455 4455 4456 4458 4456 4454 4456 4455 4456 4453 4453 4454 4449 4450 4445 4446 4442 4444 4444 4444 4446 4445 4445 4445 4443 4442 4442 4440 4441 4443 4442 4442 4442 4443 4442 4444 4441 4441 4439 4441 4440 4441 4442 4444 4445 4443 4444 4444 4442 4442 4441 4440 4437 4436 4437 4435 4434 4433 4433 4432 4430 4430 4431 4435 4432 4429 4431 4431 4432 4430 4432 4430 4429 4429 4429 4428 4426 4426 4426 4425 4427 4426 4424 4424 4424 4424 4424 4424 4424 4424 4424 4424 4424 4424 4424 4424 4424 4424 4424 4424 4424 4424 4424 4424 4424 4424 4424 4424 4424 4424 4424 4424 4424 4424 4424 4424 4424 4424 4424 4424 4424 4424 4424 4424 4424 4424 4424 4424 4424 4424 4424 4424 4424 4424 4424 4424 4424 4424 4424 4424 4424 4424 4424 4424 4424 4424 4424 4424 4424 4424 4424 4424 4424 4424 4424 4424 4424 4424 4424 4424 4424 4424 4424 4424 4424 4424 4424 4424 4424 4424 4426 4428 4424 4423 4427 4426 4428 4427 4429 4426 4425 4426 4427 4430 4428 4429 4428 4428 4428 4425 4426 4426 4428 4427 4431 4430 4429 4430 4428 4431 4428 4427 4428 4430 4430 4428 4432 4433 4433 4431 4431 4430 4431 4432 4433 4434 4434 4434 4435 4439 4442 4437 4439 4439 4439 4439 4441 4442 4441 4441 4443 4441 4443 4442 4445 4447 4444 4444 4445 4450 4448 4448 4448 4448 4451 4451 4451 4449 4451 4452 4450 4453 4454 4456 4456 4456 4456 4459 4458 4460 4461 4459 4462 4463 4463 4462 4463 4462 4462 4464 4463 4465 4464 4464 4468 4468 4469 4469 4466 4470 4472 4470 4471 4473 4472 4472 4473 4477 4478 4477 4477 4477 4478 4479 4477 4480 4480 4481 4482 4483 4483 4481 4480 4485 4483 4483 4487 4486 4483 4484 4487 4487 4488 4490
4599 4600 4601 4601 4603 4605 4606 4608 4614 4617 4620 4620 4622 4623 4626 4628 4628 4630 4634 4636 4638 4640 4642 4649 4655 4661 4668 4673 4683 4689 4696 4699 4710 4715 4720 4728 4737 4743 4755 4761 4765 4776 4785 4796 4805 4816 4825 4828 4844 4855 4869 4877 4895 4915 4941 4971 5007 5040 5074 5099 5114 5140 5167 5194 5232 5259 5250 5222 5188 5163 5140 5124 5102 5074 5040 5008 4983 4955 4925 4893 4864 4836 4817 4806 4796 4785 4772 4760 4765 4776 4790 4797 4787 4768 4752 4749 4751 4753 4756 4757 4760 4761 4761 4763 4762 4762 4760 4757 4764 4766 4770 4774 4783 4787 4799 4807 4815 4829 4849 4878 4905 4922 4937 4938 4926 4915 4900 4882 4863 4845 4834 4820 4807 4800 4781 4763 4746 4730 4720 4711 4702 4694 4688 4680 4674 4668 4660 4650 4644 4638 4631 4629 4625 4620 4617 4613 4608 4606 4600 4595 4590 4583 4578 4572 4568 4563 4557 4551 4549 4544 4545 4543 4538 4534 4531 4529 4526 4523 4519 4518 4517 4514 4513 4511 4510 4506 4505 4501 4500 4498 4495 4492 4489 4487 4483 4481 4481 4479 4468 4472 4469 4471 4468 4469 4468 4470 4470 4469 4468 4470 4468 4470 4470 4471 4471 4472 4471 4471 4472 4471 4469 4469 4470 4471 4469 4472 4471 4470 4471 4470 4472 4468 4468 4468 4468 4469 4470 4468 4470 4471 4471 4473 4471 4469 4470 4468 4469 4469 4468 4466 4469 4469 4469 4467 4466 4466 4470 4470 4469 4467 4467 4467 4467 4466 4467 4466 4468 4467 4467 4467 4466 4461 4465 4464 4461 4461 4462 4460 4457 4460 4458 4457 4453 4454 4455 4454 4455 4454 4455 4454 4455 4453 4454 4450 4449 4451 4449 4447 4446 4444 4446 4444 4445 4443 4444 4444 4444 4443 4442 4441 4444 4443 4440 4443 4443 4439 4442 4442 4443 4442 4441 4442 4443 4439 4439 4438 4440 4440 4440 4445 4445 4443 4440 4439 4438 4438 4437 4435 4434 4432 4432 4432 4434 4432 4431 4430 4430 4429 4431 4430 4430 4429 4431 4432 4433 4431 4429 4428 4427 4429 4428 4427 4427 4427 4424 4424 4424 4424 4424 4424 4424 4424 4424 4424 4424 4424 4424 4424 4424 4424 4424 4424 4424 4424 4424 4424 4424 4424 4424 4424 4424 4424 4424 4424 4424 4424 4424 4424 4424 4424 4424 4424 4424 4424 4424 4424 4424 4424 4424 4424 4424 4424 4424 4424 4424 4424 4424 4424 4424 4424 4424 4424 4424 4424 4424 4424 4424 4424 4424 4424 4424 4424 4424 4424 4424 4424 4424 4424 4424 4424 4424 4424 4424 4424 4424 4424 4424 4424 4424 4424 4424 4424 4425 4427 4427 4426 4430 4427 4426 4426 4429 4428 4427 4427 4428 4423 4425 4426 4428 4427 4427 4424 4427 4430 4429 4429 4428 4429 4433 4429 4430 4430 4430 4429 4428 4428 4428 4428 4431 4433 4430 4430 4430 4430 4432 4433 4433 4432 4432 4434 4438 4435 4441 4441 4438 4435 4439 4441 4440 4437 4440 4441 4442 4443 4444 4443 4445 4444 4447 4448 4445 4445 4445 4446 4447 4449 4450 4450 4448 4447 4451 4452 4453 4449 4449 4454 4456 4456 4458 4458 4460 4460 4458 4460 4461 4461 4466 4464 4464 4463 4465 4463 4465 4465 4465 4467 4468 4469 4469 4469 4468 4469 4468 4469 4471 4470 4471 4471 4473 4472 4478 4479 4479 4478 4479 4478 4479 4478 4479 4481 4483 4483 4482 4483 4481 4482 4481 4486 4487 4485 4487 4490 4483 4480 4481 4488 4489
4602 4602 4605 4605 4604 4606 4609 4611 4615 4618 4620 4618 4625 4629 4629 4629 4634 4635 4637 4637 4637 4642 4644 4648 4653 4661 4666 4673 4681 4688 4695 4703 4712 4715 4720 4725 4739 4747 4757 4766 4771 4780 4789 4799 4807 4823 4835 4843 4853 4862 4887 4894 4899 4913 4922 4946 4980 5021 5054 5082 5099 5110 5123 5145 5188 5222 5224 5199 5162 5123 5097 5087 5086 5072 5041 5012 4985 4955 4927 4895 4866 4839 4816 4803 4791 4780 4776 4783 4795 4808 4818 4824 4813 4786 4767 4759 4760 4763 4766 4766 4767 4771 4771 4771 4772 4772 4772 4772 4776 4782 4785 4789 4799 4809 4818 4827 4836 4845 4859 4877 4903 4926 4937 4937 4926 4905 4885 4864 4846 4828 4813 4805 4791 4782 4765 4750 4733 4728 4718 4710 4706 4699 4693 4685 4681 4675 4668 4661 4654 4645 4639 4634 4632 4630 4624 4618 4619 4615 4609 4604 4595 4588 4585 4576 4572 4564 4559 4554 4552 4552 4548 4545 4543 4540 4533 4532 4530 4527 4521 4521 4519 4514 4514 4515 4513 4510 4507 4508 4506 4502 4501 4495 4493 4489 4487 4483 4482 4481 4475 4475 4475 4475 4474 4468 4466 4469 4469 4471 4467 4469 4470 4470 4468 4471 4474 4470 4470 4471 4471 4471 4469 4471 4471 4470 4471 4472 4471 4470 4472 4471 4471 4469 4471 4471 4472 4472 4471 4470 4471 4471 4471 4472 4471 4469 4471 4470 4469 4468 4469 4465 4466 4466 4465 4467 4466 4467 4467 4470 4470 4472 4469 4466 4467 4468 4466 4466 4468 4468 4467 4467 4468 4464 4464 4463 4462 4461 4459 4456 4454 4458 4461 4457 4458 4459 4457 4455 4456 4457 4455 4452 4454 4454 4454 4453 4448 4447 4449 4449 4445 4443 4441 4444 4447 4444 4443 4443 4444 4443 4442 4440 4442 4442 4443 4443 4441 4441 4440 4440 4442 4440 4441 4439 4440 4440 4438 4434 4439 4438 4442 4442 4446 4444 4442 4442 4438 4437 4434 4432 4431 4433 4433 4430 4433 4432 4436 4434 4432 4432 4431 4430 4428 4428 4431 4430 4430 4431 4426 4430 4430 4428 4428 4426 4426 4428 4426 4425 4424 4424 4424 4426 4424 4424 4424 4424 4424 4424 4424 4424 4424 4424 4424 4424 4424 4424 4424 4424 4424 4424 4424 4424 4424 4424 4424 4424 4424 4424 4424 4424 4424 4424 4424 4424 4424 4424 4424 4424 4424 4424 4424 4424 4424 4424 4424 4424 4424 4424 4424 4424 4424 4424 4424 4424 4424 4424 4424 4424 4424 4424 4424 4424 4424 4424 4424 4424 4424 4424 4424 4424 4424 4424 4424 4424 4424 4424 4424 4424 4424 4424 4424 4424 4424 4424 4426 4426 4426 4425 4425 4427 4425 4428 4429 4423 4429 4431 4426 4425 4429 4427 4429 4427 4427 4427 4425 4426 4427 4427 4429 4429 4432 4428 4428 4429 4430 4428 4430 4430 4428 4427 4427 4432 4432 4431 4430 4433 4434 4433 4432 4433 4434 4436 4435 4435 4435 4437 4437 4439 4439 4441 4442 4441 4442 4442 4442 4443 4446 4442 4447 4442 4442 4448 4447 4443 4446 4446 4449 4448 4447 4451 4451 4449 4451 4453 4454 4453 4451 4456 4458 4459 4457 4460 4459 4460 4460 4459 4463 4462 4461 4464 4463 4465 4463 4464 4465 4464 4467 4467 4469 4470 4471 4472 4469 4471 4467 4471 4471 4470 4474 4473 4474 4473 4475 4477 4477 4475 4477 4479 4480 4483 4483 4484 4481 4481 4482 4481 4484 4482 4484 4483 4484 4484 4486 4486 4485 4485 4483 4484 4488
4606 4605 4606 4607 4607 4612 4615 4613 4616 4622 4624 4624 4624 4628 4631 4634 4638 4638 4640 4643 4643 4646 4649 4649 4652 4658 4667 4673 4679 4684 4694 4703 4709 4712 4719 4722 4737 4743 4753 4764 4774 4786 4801 4811 4821 4835 4849 4860 4876 4892 4913 4924 4928 4937 4946 4945 4956 4988 5013 5032 5048 5061 5087 5127 5173 5213 5219 5189 5148 5104 5062 5044 5044 5045 5025 5000 4974 4947 4913 4890 4861 4837 4819 4803 4792 4789 4800 4817 4839 4853 4859 4854 4832 4808 4786 4768 4768 4772 4774 4776 4777 4780 4782 4781 4782 4783 4785 4787 4792 4798 4805 4812 4818 4830 4844 4854 4861 4871 4881 4897 4919 4939 4944 4937 4924 4898 4884 4855 4831 4816 4802 4790 4779 4765 4758 4751 4741 4735 4728 4716 4713 4707 4700 4696 4691 4681 4673 4667 4662 4653 4645 4642 4641 4637 4632 4629 4626 4621 4613 4610 4601 4596 4588 4580 4574 4567 4561 4557 4556 4554 4552 4549 4547 4542 4537 4532 4531 4528 4522 4520 4519 4519 4516 4514 4513 4511 4513 4513 4509 4505 4504 4498 4497 4494 4491 4488 4487 4486 4485 4484 4481 4478 4476 4474 4469 4472 4471 4468 4470 4470 4471 4473 4468 4472 4472 4471 4472 4472 4471 4471 4470 4470 4474 4472 4471 4472 4472 4470 4472 4474 4473 4471 4474 4471 4472 4473 4471 4473 4474 4474 4473 4471 4471 4473 4473 4471 4470 4470 4469 4468 4470 4468 4464 4465 4469 4470 4470 4468 4467 4466 4465 4468 4469 4469 4463 4468 4466 4468 4467 4466 4467 4467 4466 4462 4461 4459 4460 4461 4461 4460 4457 4455 4457 4455 4454 4452 4454 4455 4456 4453 4452 4450 4453 4452 4449 4450 4444 4444 4444 4444 4444 4445 4445 4444 4444 4443 4441 4442 4440 4439 4439 4441 4441 4439 4443 4443 4441 4440 4441 4439 4440 4440 4440 4440 4439 4440 4441 4439 4440 4440 4444 4445 4443 4442 4438 4436 4433 4437 4434 4429 4432 4431 4432 4432 4435 4433 4433 4435 4434 4430 4428 4430 4431 4431 4429 4430 4432 4429 4430 4430 4429 4429 4427 4426 4425 4426 4423 4425 4424 4424 4423 4419 4424 4424 4424 4424 4424 4424 4424 4424 4424 4424 4424 4424 4424 4424 4424 4424 4424 4424 4424 4424 4424 4424 4424 4424 4424 4424 4424 4424 4424 4424 4424 4424 4424 4424 4424 4424 4424 4424 4424 4424 4424 4424 4424 4424 4424 4424 4424 4424 4424 4424 4424 4424 4424 4424 4424 4424 4424 4424 4424 4424 4424 4424 4424 4424 4424 4424 4424 4424 4424 4424 4424 4424 4424 4424 4424 4424 4424 4424 4424 4424 4427 4425 4426 4425 4426 4425 4427 4428 4426 4426 4428 4428 4429 4427 4425 4425 4425 4427 4427 4429 4427 4428 4427 4430 4433 4427 4429 4430 4430 4429 4429 4429 4430 4429 4426 4426 4427 4431 4432 4431 4430 4432 4430 4431 4432 4432 4433 4435 4435 4436 4437 4436 4439 4438 4437 4439 4441 4444 4445 4441 4442 4441 4444 4442 4444 4445 4443 4446 4446 4445 4448 4446 4447 4449 4449 4451 4451 4451 4449 4451 4453 4451 4450 4455 4457 4458 4458 4459 4459 4462 4458 4460 4461 4463 4463 4465 4465 4464 4462 4465 4467 4466 4469 4467 4470 4470 4471 4470 4473 4474 4469 4471 4473 4469 4473 4474 4475 4477 4478 4478 4478 4477 4477 4480 4482 4481 4482 4480 4480 4481 4480 4480 4483 4481 4482 4484 4485 4484 4486 4481 4484 4483 4483 4488 4490
4608 4609 4610 4610 4609 4613 4615 4618 4622 4620 4627 4623 4628 4631 4633 4636 4638 4640 4643 4646 4648 4650 4649 4651 4656 4657 4665 4671 4676 4683 4688 4697 4706 4711 4717 4727 4736 4746 4759 4776 4785 4804 4826 4839 4849 4862 4874 4895 4910 4928 4949 4972 4976 4981 4988 4990 4991 4989 5001 5027 5055 5089 5124 5161 5199 5218 5209 5179 5144 5105 5063 5025 5000 4995 4992 4974 4952 4929 4902 4879 4858 4838 4823 4806 4803 4820 4834 4859 4887 4900 4902 4886 4860 4832 4804 4781 4779 4783 4787 4788 4788 4790 4790 4792 4792 4793 4802 4808 4811 4812 4821 4836 4850 4863 4873 4882 4894 4900 4911 4922 4938 4952 4955 4942 4921 4899 4879 4848 4830 4814 4794 4784 4776 4769 4763 4757 4747 4743 4735 4727 4723 4720 4708 4705 4696 4686 4679 4675 4668 4659 4654 4652 4651 4646 4643 4639 4635 4631 4623 4614 4606 4597 4589 4581 4577 4570 4564 4562 4560 4560 4556 4552 4551 4548 4544 4537 4534 4532 4526 4524 4523 4523 4522 4522 4520 4518 4518 4516 4516 4512 4507 4503 4499 4497 4494 4494 4494 4493 4494 4495 4492 4488 4483 4479 4478 4477 4477 4472 4470 4471 4469 4467 4469 4470 4471 4470 4472 4473 4472 4472 4470 4474 4473 4474 4473 4472 4472 4472 4471 4472 4474 4475 4474 4473 4475 4474 4475 4473 4473 4472 4474 4472 4472 4474 4472 4472 4470 4468 4468 4473 4473 4471 4468 4467 4469 4465 4468 4470 4470 4468 4465 4468 4466 4470 4469 4466 4467 4468 4464 4469 4467 4464 4466 4469 4463 4462 4462 4462 4461 4459 4457 4458 4458 4456 4455 4453 4455 4454 4457 4456 4453 4451 4452 4450 4448 4450 4448 4445 4441 4445 4444 4445 4447 4442 4441 4443 4439 4440 4439 4439 4440 4439 4440 4440 4443 4440 4437 4440 4439 4439 4438 4441 4440 4437 4439 4438 4440 4440 4441 4443 4444 4442 4441 4440 4440 4437 4435 4437 4433 4433 4433 4432 4433 4432 4433 4432 4434 4433 4432 4431 4429 4429 4433 4431 4431 4431 4432 4429 4429 4427 4427 4427 4429 4429 4429 4426 4424 4425 4428 4425 4424 4424 4429 4424 4424 4424 4424 4424 4424 4424 4424 4424 4424 4424 4424 4424 4424 4424 4424 4424 4424 4424 4424 4424 4424 4424 4424 4424 4424 4424 4424 4424 4424 4424 4424 4424 4424 4424 4424 4424 4424 4424 4424 4424 4424 4424 4424 4424 4424 4424 4424 4424 4424 4424 4424 4424 4424 4424 4424 4424 4424 4424 4424 4424 4424 4424 4424 4424 4424 4424 4424 4424 4424 4424 4424 4424 4424 4424 4424 4424 4424 4425 4425 4426 4427 4428 4427 4427 4425 4427 4425 4422 4426 4428 4426 4428 4429 4428 4425 4425 4427 4429 4427 4428 4428 4429 4429 4429 4428 4429 4428 4431 4431 4428 4430 4429 4431 4432 4430 4430 4432 4432 4433 4433 4436 4435 4435 4435 4434 4436 4437 4436 4439 4436 4438 4439 4441 4441 4441 4443 4442 4439 4445 4445 4445 4444 4444 4443 4442 4446 4446 4446 4448 4447 4448 4449 4453 4451 4449 4450 4450 4452 4453 4452 4451 4455 4457 4456 4459 4459 4459 4460 4460 4460 4462 4463 4462 4465 4464 4463 4464 4465 4467 4468 4467 4469 4470 4470 4472 4473 4473 4474 4470 4474 4474 4474 4473 4471 4476 4478 4478 4478 4476 4478 4480 4482 4481 4481 4481 4479 4481 4483 4479 4483 4482 4478 4484 4485 4480 4479 4487 4479 4485 4485 4486 4487 4487
4605 4608 4611 4612 4617 4619 4619 4622 4624 4625 4631 4629 4629 4633 4635 4638 4639 4643 4643 4647 4650 4650 4651 4653 4652 4663 4665 4671 4679 4685 4691 4696 4703 4708 4714 4721 4730 4745 4763 4793 4808 4823 4847 4870 4881 4891 4908 4933 4948 4969 4996 5022 5028 5038 5047 5048 5042 5042 5050 5075 5098 5126 5165 5195 5213 5205 5185 5155 5128 5094 5059 5033 4998 4969 4950 4934 4927 4916 4894 4873 4851 4834 4821 4818 4828 4851 4882 4906 4930 4943 4940 4917 4887 4854 4826 4797 4791 4794 4795 4797 4798 4800 4803 4803 4801 4805 4819 4830 4837 4839 4847 4863 4878 4895 4909 4922 4927 4935 4946 4957 4965 4969 4962 4942 4919 4895 4870 4846 4823 4811 4797 4792 4783 4778 4773 4765 4759 4753 4747 4737 4728 4724 4718 4715 4704 4695 4688 4682 4678 4670 4664 4660 4660 4658 4652 4648 4646 4646 4643 4630 4612 4601 4590 4581 4579 4577 4569 4568 4566 4566 4561 4557 4555 4554 4551 4546 4540 4535 4527 4526 4527 4529 4528 4529 4529 4525 4524 4521 4519 4515 4510 4506 4506 4505 4502 4503 4506 4508 4511 4508 4505 4501 4499 4492 4488 4485 4481 4479 4472 4472 4472 4473 4474 4473 4471 4470 4474 4473 4473 4471 4471 4473 4474 4474 4474 4475 4474 4473 4474 4474 4473 4474 4474 4475 4473 4473 4476 4474 4476 4474 4473 4472 4472 4473 4474 4471 4471 4471 4471 4472 4471 4472 4471 4469 4467 4463 4468 4469 4470 4468 4468 4470 4466 4474 4472 4467 4468 4467 4466 4468 4464 4463 4465 4468 4466 4464 4462 4464 4462 4460 4456 4458 4457 4457 4455 4458 4456 4451 4457 4454 4458 4455 4451 4450 4451 4445 4444 4446 4444 4443 4444 4441 4445 4444 4442 4442 4439 4440 4441 4438 4438 4436 4442 4440 4440 4439 4436 4437 4439 4437 4439 4440 4440 4437 4439 4440 4437 4440 4443 4441 4437 4439 4443 4441 4438 4437 4436 4435 4435 4434 4433 4431 4431 4431 4432 4433 4434 4432 4431 4432 4428 4430 4430 4431 4430 4426 4430 4430 4426 4428 4428 4428 4426 4425 4427 4428 4427 4427 4428 4424 4425 4426 4425 4425 4424 4424 4424 4424 4424 4424 4424 4424 4424 4424 4424 4424 4424 4424 4424 4424 4424 4424 4424 4424 4424 4424 4424 4424 4424 4424 4424 4424 4424 4424 4424 4424 4424 4424 4424 4424 4424 4424 4424 4424 4424 4424 4424 4424 4424 4424 4424 4424 4424 4424 4424 4424 4424 4424 4424 4424 4424 4424 4424 4424 4424 4424 4424 4424 4424 4424 4424 4424 4424 4424 4424 4424 4424 4424 4424 4424 4424 4425 4427 4429 4428 4427 4426 4424 4425 4425 4427 4424 4427 4430 4428 4428 4428 4430 4427 4426 4427 4429 4428 4428 4428 4427 4427 4427 4427 4430 4427 4428 4429 4431 4431 4431 4430 4430 4432 4429 4430 4432 4432 4435 4436 4437 4434 4436 4434 4435 4436 4435 4437 4435 4441 4440 4439 4444 4444 4445 4444 4443 4442 4443 4443 4442 4441 4440 4443 4446 4445 4448 4448 4446 4448 4449 4452 4453 4449 4450 4450 4449 4450 4453 4453 4456 4456 4458 4458 4459 4461 4459 4461 4464 4463 4463 4465 4465 4465 4465 4465 4466 4467 4469 4471 4470 4470 4471 4470 4468 4471 4472 4472 4473 4474 4476 4476 4475 4477 4478 4479 4480 4479 4478 4480 4482 4481 4480 4483 4480 4480 4476 4485 4482 4478 4478 4484 4484 4483 4484 4485 4481 4486 4491 4492 4489 4487
4610 4611 4613 4613 4618 4619 4621 4622 4621 4625 4627 4631 4630 4634 4635 4638 4642 4646 4648 4650 4652 4652 4656 4660 4664 4666 4668 4674 4681 4686 4690 4695 4704 4707 4711 4717 4724 4739 4756 4784 4813 4827 4846 4871 4888 4906 4926 4953 4974 4995 5024 5058 5082 5096 5103 5101 5096 5093 5097 5114 5128 5143 5173 5193 5193 5170 5142 5117 5099 5066 5037 5013 4992 4963 4936 4917 4911 4897 4879 4862 4845 4834 4832 4843 4866 4888 4916 4940 4962 4977 4965 4937 4903 4871 4837 4808 4801 4803 4806 4808 4810 4812 4812 4813 4812 4818 4833 4853 4862 4869 4877 4892 4908 4926 4943 4958 4970 4977 4985 4994 4996 4986 4961 4935 4913 4886 4864 4843 4821 4813 4802 4796 4792 4786 4780 4774 4769 4760 4754 4747 4738 4732 4726 4719 4712 4707 4700 4693 4686 4678 4675 4671 4668 4667 4664 4658 4663 4678 4675 4647 4620 4601 4597 4589 4582 4579 4574 4573 4572 4572 4567 4564 4565 4562 4560 4559 4551 4543 4535 4537 4535 4535 4534 4533 4532 4533 4530 4526 4528 4526 4521 4514 4516 4517 4517 4521 4525 4531 4531 4528 4522 4520 4515 4508 4502 4497 4493 4488 4482 4476 4476 4476 4477 4476 4470 4471 4475 4474 4472 4473 4476 4474 4474 4476 4475 4472 4476 4474 4475 4476 4475 4476 4475 4475 4476 4475 4476 4475 4477 4476 4474 4473 4473 4475 4475 4474 4472 4471 4472 4472 4470 4472 4472 4467 4468 4470 4467 4469 4469 4468 4469 4467 4466 4467 4468 4466 4468 4464 4465 4468 4468 4464 4462 4467 4466 4466 4466 4465 4461 4461 4464 4460 4458 4456 4453 4453 4454 4454 4455 4455 4453 4454 4449 4449 4453 4449 4449 4450 4448 4445 4444 4441 4444 4440 4439 4442 4441 4442 4441 4438 4438 4439 4442 4440 4442 4441 4439 4437 4440 4440 4440 4440 4439 4440 4440 4439 4437 4438 4441 4439 4437 4440 4438 4442 4441 4437 4434 4434 4433 4433 4432 4433 4434 4436 4433 4431 4431 4431 4431 4431 4429 4429 4429 4431 4429 4426 4428 4429 4429 4430 4430 4424 4427 4427 4427 4425 4425 4426 4427 4424 4425 4428 4425 4426 4427 4424 4424 4424 4424 4424 4424 4424 4424 4424 4424 4424 4424 4424 4424 4424 4424 4424 4424 4424 4424 4424 4424 4424 4424 4424 4424 4424 4424 4424 4424 4424 4424 4424 4424 4424 4424 4424 4424 4424 4424 4424 4424 4424 4424 4424 4424 4424 4424 4424 4424 4424 4424 4424 4424 4424 4424 4424 4424 4424 4424 4424 4424 4424 4424 4424 4424 4424 4424 4424 4424 4424 4424 4424 4424 4424 4425 4424 4427 4429 4426 4425 4428 4427 4427 4430 4429 4433 4427 4427 4429 4427 4428 4429 4430 4427 4428 4430 4429 4429 4430 4430 4428 4431 4429 4428 4429 4431 4430 4432 4433 4433 4430 4432 4431 4428 4429 4431 4434 4435 4434 4435 4432 4434 4433 4436 4436 4437 4437 4436 4440 4440 4442 4441 4442 4443 4444 4444 4442 4444 4443 4446 4441 4443 4444 4443 4441 4444 4448 4447 4449 4449 4450 4450 4449 4451 4453 4452 4452 4454 4454 4455 4456 4459 4461 4462 4462 4459 4461 4463 4463 4463 4466 4467 4462 4464 4465 4468 4468 4468 4470 4471 4471 4470 4471 4471 4470 4473 4472 4473 4476 4477 4476 4477 4479 4481 4480 4481 4480 4481 4479 4480 4481 4481 4482 4481 4485 4483 4485 4485 4483 4484 4483 4485 4485 4483 4486 4483 4485 4491 4489 4488 4486
4610 4615 4616 4615 4618 4618 4618 4623 4624 4628 4630 4633 4634 4636 4639 4642 4643 4648 4649 4653 4655 4656 4658 4662 4665 4668 4671 4674 4679 4684 4689 4697 4702 4706 4707 4710 4720 4732 4749 4765 4788 4813 4830 4859 4879 4901 4923 4949 4973 5006 5029 5059 5094 5109 5103 5097 5099 5099 5101 5111 5109 5107 5138 5166 5170 5149 5118 5084 5058 5032 5008 4989 4972 4950 4934 4919 4908 4901 4892 4880 4853 4844 4850 4869 4890 4915 4944 4967 4985 4995 4981 4949 4914 4880 4848 4819 4811 4814 4815 4818 4820 4820 4823 4824 4826 4832 4855 4881 4897 4909 4913 4927 4946 4964 4982 5001 5016 5025 5027 5024 5011 4985 4957 4932 4906 4881 4858 4840 4828 4818 4814 4809 4802 4795 4789 4784 4778 4770 4764 4754 4746 4741 4734 4729 4723 4719 4709 4703 4692 4685 4684 4683 4678 4676 4673 4668 4684 4704 4697 4663 4633 4610 4596 4590 4589 4582 4579 4579 4581 4586 4582 4575 4573 4572 4575 4578 4567 4555 4545 4542 4543 4539 4541 4539 4537 4537 4535 4537 4540 4543 4540 4536 4538 4539 4541 4543 4551 4556 4557 4552 4547 4544 4538 4531 4522 4514 4507 4498 4491 4487 4482 4481 4475 4473 4473 4473 4472 4474 4475 4474 4475 4478 4475 4477 4476 4476 4477 4477 4476 4475 4477 4475 4473 4477 4478 4476 4476 4473 4476 4476 4475 4474 4476 4474 4473 4472 4472 4473 4473 4472 4473 4472 4471 4473 4471 4472 4471 4473 4469 4466 4468 4468 4467 4468 4468 4470 4469 4463 4467 4470 4468 4469 4469 4468 4465 4462 4465 4466 4463 4461 4464 4459 4457 4457 4458 4457 4455 4453 4455 4454 4452 4459 4455 4450 4451 4449 4450 4446 4445 4449 4448 4449 4447 4446 4439 4441 4442 4442 4441 4441 4440 4441 4441 4439 4440 4439 4437 4437 4439 4439 4441 4441 4440 4439 4439 4442 4439 4437 4439 4438 4436 4438 4437 4443 4442 4436 4435 4436 4435 4433 4432 4432 4433 4433 4432 4434 4430 4430 4431 4432 4429 4429 4429 4432 4430 4427 4428 4428 4427 4429 4430 4426 4427 4425 4424 4424 4425 4425 4426 4424 4425 4426 4426 4426 4424 4424 4424 4424 4424 4424 4424 4424 4424 4424 4424 4424 4424 4424 4424 4424 4424 4424 4424 4424 4424 4424 4424 4424 4424 4424 4424 4424 4424 4424 4424 4424 4424 4424 4424 4424 4424 4424 4424 4424 4424 4424 4424 4424 4424 4424 4424 4424 4424 4424 4424 4424 4424 4424 4424 4424 4424 4424 4424 4424 4424 4424 4424 4424 4424 4424 4424 4424 4424 4424 4424 4424 4424 4424 4424 4424 4426 4427 4426 4426 4428 4426 4425 4426 4427 4426 4427 4428 4427 4426 4425 4425 4428 4428 4426 4429 4426 4431 4428 4428 4430 4428 4429 4430 4428 4428 4429 4428 4429 4431 4430 4430 4432 4429 4433 4431 4428 4434 4435 4433 4434 4432 4432 4434 4435 4434 4436 4439 4437 4437 4441 4442 4439 4439 4441 4441 4443 4446 4443 4444 4444 4446 4441 4442 4443 4447 4446 4445 4449 4448 4448 4449 4449 4451 4451 4452 4450 4453 4454 4453 4454 4456 4458 4460 4461 4463 4461 4460 4463 4463 4465 4464 4464 4464 4465 4466 4466 4466 4468 4468 4468 4468 4470 4470 4471 4472 4473 4473 4473 4473 4477 4476 4478 4479 4478 4480 4479 4481 4481 4481 4476 4478 4483 4478 4480 4482 4482 4483 4485 4482 4481 4481 4483 4484 4485 4485 4486 4490 4492 4491 4489 4489 4488
4607 4609 4612 4613 4617 4620 4623 4624 4627 4627 4629 4632 4635 4636 4641 4643 4645 4648 4650 4654 4656 4659 4661 4664 4667 4669 4672 4676 4682 4687 4692 4697 4700 4706 4714 4719 4717 4728 4742 4760 4775 4796 4817 4846 4867 4886 4906 4927 4956 4982 5004 5028 5048 5058 5056 5051 5053 5055 5052 5053 5054 5074 5111 5138 5156 5148 5127 5096 5069 5043 5019 4995 4976 4964 4958 4954 4953 4949 4935 4900 4862 4862 4872 4888 4910 4933 4955 4982 5000 5000 4977 4947 4917 4887 4858 4834 4818 4825 4827 4827 4831 4832 4832 4832 4839 4849 4868 4909 4926 4941 4952 4970 4986 5004 5025 5044 5056 5062 5057 5036 5010 4983 4958 4929 4904 4877 4860 4846 4834 4828 4824 4819 4815 4807 4801 4796 4788 4781 4771 4763 4756 4749 4746 4742 4735 4729 4719 4715 4706 4699 4695 4694 4691 4687 4684 4681 4690 4710 4714 4694 4662 4629 4606 4598 4592 4585 4587 4589 4593 4596 4600 4594 4587 4586 4593 4602 4592 4573 4559 4551 4551 4548 4546 4546 4545 4544 4546 4550 4554 4556 4559 4560 4561 4566 4570 4575 4586 4594 4594 4590 4583 4576 4566 4556 4546 4536 4526 4514 4504 4498 4492 4489 4483 4479 4476 4474 4474 4475 4474 4474 4472 4477 4478 4479 4477 4477 4477 4478 4479 4477 4478 4475 4476 4476 4478 4475 4476 4475 4476 4477 4476 4477 4476 4474 4472 4473 4473 4471 4474 4473 4473 4472 4472 4472 4471 4471 4470 4468 4467 4469 4470 4468 4465 4467 4468 4468 4468 4467 4467 4468 4468 4465 4469 4467 4465 4464 4466 4467 4465 4463 4459 4460 4456 4453 4458 4460 4457 4453 4456 4454 4453 4455 4453 4453 4450 4449 4448 4446 4447 4445 4447 4446 4449 4445 4442 4440 4440 4438 4440 4438 4439 4441 4440 4437 4439 4437 4439 4437 4437 4435 4438 4439 4440 4439 4440 4442 4441 4438 4436 4435 4435 4438 4437 4439 4439 4437 4434 4435 4434 4432 4434 4433 4432 4431 4430 4430 4429 4433 4431 4436 4434 4431 4432 4433 4436 4431 4428 4429 4429 4427 4429 4431 4428 4427 4426 4427 4428 4427 4425 4425 4426 4426 4425 4424 4422 4423 4424 4424 4424 4424 4424 4424 4424 4424 4424 4424 4424 4424 4424 4424 4424 4424 4424 4424 4424 4424 4424 4424 4424 4424 4424 4424 4424 4424 4424 4424 4424 4424 4424 4424 4424 4424 4424 4424 4424 4424 4424 4424 4424 4424 4424 4424 4424 4424 4424 4424 4424 4424 4424 4424 4424 4424 4424 4424 4424 4424 4424 4424 4424 4424 4424 4424 4424 4424 4424 4424 4424 4424 4424 4426 4426 4427 4428 4426 4427 4427 4429 4431 4429 4425 4424 4427 4429 4428 4427 4425 4428 4426 4425 4427 4431 4431 4428 4428 4430 4430 4431 4430 4427 4430 4433 4430 4432 4430 4430 4429 4430 4430 4434 4431 4434 4434 4431 4433 4433 4432 4435 4436 4436 4436 4437 4440 4441 4440 4438 4442 4441 4441 4440 4440 4443 4443 4439 4443 4444 4444 4445 4439 4446 4446 4444 4446 4450 4450 4449 4450 4450 4450 4451 4452 4453 4452 4453 4456 4455 4458 4459 4461 4460 4458 4459 4462 4464 4464 4465 4465 4463 4464 4464 4467 4468 4468 4470 4468 4469 4470 4470 4471 4471 4474 4473 4474 4475 4475 4476 4477 4478 4478 4476 4477 4481 4482 4481 4481 4480 4479 4480 4478 4478 4480 4479 4478 4483 4481 4481 4485 4486 4486 4488 4487 4486 4489 4488 4489 4489 4493 4490
4607 4609 4609 4612 4616 4618 4620 4621 4624 4631 4631 4635 4637 4639 4644 4644 4646 4648 4653 4657 4658 4662 4663 4665 4669 4670 4674 4679 4682 4688 4695 4700 4704 4706 4714 4721 4725 4728 4739 4755 4772 4794 4815 4836 4853 4872 4887 4903 4924 4944 4958 4975 4988 4994 4996 4997 5003 5006 5009 5019 5044 5076 5107 5134 5154 5161 5145 5121 5097 5067 5036 5014 5005 5000 5003 5003 5000 4993 4955 4908 4872 4879 4890 4905 4927 4952 4972 4991 5003 4997 4975 4951 4926 4898 4871 4845 4830 4836 4840 4838 4841 4844 4844 4843 4849 4862 4890 4930 4962 4980 4994 5012 5028 5046 5063 5081 5085 5077 5059 5037 5010 4978 4951 4924 4898 4877 4862 4850 4841 4838 4835 4831 4826 4820 4811 4806 4796 4786 4782 4773 4765 4758 4757 4754 4747 4742 4737 4736 4723 4709 4706 4703 4700 4698 4695 4690 4694 4712 4718 4707 4679 4646 4616 4602 4596 4596 4595 4595 4597 4604 4617 4617 4609 4606 4616 4629 4620 4595 4578 4570 4565 4556 4554 4552 4554 4555 4558 4563 4570 4578 4586 4597 4599 4604 4615 4630 4646 4651 4650 4652 4645 4622 4601 4587 4570 4560 4547 4534 4520 4513 4504 4499 4493 4487 4482 4478 4476 4476 4475 4477 4477 4476 4479 4479 4480 4476 4476 4478 4478 4476 4478 4481 4477 4476 4479 4477 4477 4476 4478 4479 4479 4476 4477 4475 4474 4474 4476 4475 4472 4471 4473 4473 4473 4472 4473 4471 4471 4470 4469 4468 4467 4464 4466 4468 4469 4468 4468 4468 4469 4467 4468 4469 4469 4467 4467 4465 4466 4465 4464 4461 4461 4461 4459 4456 4456 4456 4458 4456 4458 4457 4455 4453 4453 4451 4451 4448 4446 4446 4445 4446 4445 4447 4448 4443 4443 4442 4442 4440 4442 4439 4441 4436 4439 4440 4439 4438 4435 4437 4437 4438 4437 4438 4439 4441 4441 4440 4440 4436 4436 4436 4438 4437 4438 4437 4438 4437 4435 4431 4433 4434 4434 4431 4432 4432 4431 4430 4430 4428 4429 4429 4427 4430 4436 4436 4432 4431 4429 4430 4428 4427 4425 4431 4428 4429 4427 4426 4428 4427 4425 4425 4426 4424 4424 4422 4427 4422 4423 4424 4424 4424 4424 4424 4424 4424 4424 4424 4424 4424 4424 4424 4424 4424 4424 4424 4424 4424 4424 4424 4424 4424 4424 4424 4424 4424 4424 4424 4424 4424 4424 4424 4424 4424 4424 4424 4424 4424 4424 4424 4424 4424 4424 4424 4424 4424 4424 4424 4424 4424 4424 4424 4424 4424 4424 4424 4424 4424 4424 4424 4424 4424 4424 4424 4424 4424 4424 4424 4424 4424 4427 4426 4427 4428 4427 4427 4427 4429 4428 4429 4428 4425 4425 4428 4429 4424 4424 4426 4429 4429 4431 4429 4430 4429 4430 4430 4430 4427 4428 4429 4429 4431 4428 4429 4431 4432 4435 4434 4430 4430 4428 4428 4431 4430 4433 4434 4434 4436 4436 4439 4436 4437 4440 4438 4439 4440 4440 4439 4441 4441 4441 4443 4441 4442 4440 4446 4445 4444 4444 4444 4446 4445 4444 4447 4448 4449 4449 4449 4451 4453 4453 4453 4452 4452 4453 4455 4456 4460 4459 4460 4458 4459 4461 4463 4463 4463 4464 4466 4465 4465 4468 4469 4469 4470 4469 4471 4470 4470 4471 4472 4472 4473 4472 4472 4476 4478 4478 4478 4478 4477 4478 4479 4481 4481 4481 4482 4480 4478 4475 4474 4481 4482 4485 4487 4482 4481 4482 4482 4484 4485 4488 4487 4486 4487 4487 4490 4491 4490 4491
4615 4616 4615 4617 4617 4617 4618 4620 4625 4629 4631 4636 4638 4640 4643 4645 4647 4650 4654 4660 4662 4664 4664 4667 4672 4673 4676 4680 4685 4690 4694 4698 4702 4707 4717 4722 4724 4731 4740 4756 4770 4787 4805 4825 4840 4855 4865 4885 4899 4910 4913 4924 4935 4941 4943 4946 4955 4968 4988 5012 5041 5070 5103 5130 5149 5164 5160 5144 5117 5083 5056 5047 5050 5051 5051 5047 5035 4999 4957 4911 4885 4894 4907 4923 4946 4970 4995 5009 5018 5008 4986 4960 4932 4913 4890 4857 4844 4850 4853 4849 4852 4855 4855 4855 4861 4882 4918 4963 4997 5030 5051 5058 5074 5083 5091 5095 5088 5074 5057 5035 5007 4975 4949 4920 4894 4877 4866 4858 4853 4849 4846 4844 4838 4830 4822 4817 4807 4796 4788 4780 4776 4770 4768 4766 4763 4757 4754 4751 4734 4720 4717 4716 4715 4710 4706 4702 4701 4709 4709 4696 4675 4646 4622 4605 4604 4607 4604 4604 4605 4610 4622 4638 4640 4641 4649 4658 4652 4632 4612 4599 4585 4568 4563 4562 4564 4565 4570 4580 4591 4609 4633 4647 4653 4660 4675 4692 4703 4708 4712 4724 4714 4688 4662 4642 4613 4588 4571 4554 4539 4529 4520 4511 4504 4498 4489 4484 4480 4478 4479 4477 4478 4479 4479 4480 4482 4480 4478 4479 4479 4479 4477 4481 4476 4480 4480 4478 4479 4479 4478 4476 4477 4477 4477 4476 4475 4474 4475 4475 4472 4473 4474 4475 4472 4473 4473 4474 4470 4470 4471 4469 4468 4467 4470 4469 4467 4469 4468 4467 4467 4467 4468 4466 4465 4468 4468 4468 4467 4465 4467 4466 4464 4460 4462 4463 4461 4457 4459 4456 4457 4455 4455 4455 4453 4453 4448 4445 4448 4450 4447 4445 4447 4446 4448 4444 4444 4441 4442 4440 4440 4439 4440 4439 4438 4438 4438 4438 4435 4434 4436 4436 4438 4438 4437 4438 4438 4435 4439 4438 4436 4435 4436 4437 4436 4438 4442 4437 4435 4435 4435 4434 4432 4430 4431 4429 4428 4433 4432 4430 4430 4433 4430 4427 4429 4433 4430 4428 4427 4428 4426 4428 4430 4427 4428 4432 4430 4425 4428 4429 4424 4426 4426 4429 4428 4425 4428 4425 4424 4424 4424 4424 4424 4424 4424 4424 4424 4424 4424 4424 4424 4424 4424 4424 4424 4424 4424 4424 4424 4424 4424 4424 4424 4424 4424 4424 4424 4424 4424 4424 4424 4424 4424 4424 4424 4424 4424 4424 4424 4424 4424 4424 4424 4424 4424 4424 4424 4424 4424 4424 4424 4424 4424 4424 4424 4424 4424 4424 4424 4424 4424 4424 4424 4424 4424 4424 4424 4424 4424 4425 4426 4427 4430 4429 4426 4426 4426 4429 4428 4428 4426 4427 4428 4428 4427 4427 4427 4429 4429 4430 4431 4429 4431 4426 4430 4429 4430 4429 4428 4429 4425 4428 4430 4429 4430 4432 4431 4429 4429 4431 4431 4431 4431 4431 4433 4433 4433 4433 4435 4438 4437 4436 4441 4440 4439 4441 4442 4440 4440 4441 4440 4443 4444 4445 4448 4447 4443 4440 4442 4442 4443 4444 4446 4447 4447 4451 4452 4450 4449 4452 4453 4454 4453 4453 4453 4455 4457 4459 4459 4459 4459 4460 4463 4462 4463 4464 4466 4468 4467 4465 4469 4472 4473 4471 4473 4473 4471 4471 4473 4473 4472 4473 4476 4474 4476 4478 4478 4476 4478 4477 4481 4480 4482 4481 4481 4481 4481 4479 4479 4479 4480 4482 4482 4484 4484 4482 4484 4485 4485 4486 4486 4490 4490 4489 4488 4491 4490 4489 4488
4622 4621 4619 4627 4628 4630 4628 4624 4625 4629 4631 4635 4638 4640 4644 4645 4647 4651 4655 4660 4661 4666 4667 4669 4673 4677 4679 4683 4687 4691 4695 4697 4701 4708 4715 4720 4722 4733 4743 4752 4765 4773 4791 4805 4821 4835 4848 4857 4868 4864 4882 4884 4889 4903 4917 4935 4953 4975 4993 5014 5038 5067 5094 5122 5145 5161 5170 5164 5139 5108 5093 5094 5099 5098 5090 5067 5039 4999 4957 4918 4897 4907 4921 4942 4967 4992 5019 5036 5034 5023 5004 4982 4956 4932 4902 4860 4855 4863 4865 4864 4863 4867 4867 4866 4872 4901 4954 4998 5036 5064 5083 5098 5106 5105 5099 5085 5074 5060 5043 5024 5001 4975 4950 4919 4896 4883 4873 4869 4865 4861 4860 4858 4853 4843 4833 4824 4817 4808 4801 4794 4790 4786 4783 4779 4776 4773 4762 4753 4740 4732 4729 4728 4724 4722 4717 4712 4709 4714 4711 4691 4665 4645 4625 4611 4611 4615 4613 4616 4614 4615 4628 4649 4672 4685 4692 4695 4680 4659 4641 4615 4589 4575 4571 4569 4571 4576 4583 4600 4619 4645 4670 4694 4705 4718 4730 4746 4765 4769 4767 4778 4781 4751 4721 4693 4657 4628 4599 4576 4561 4550 4538 4529 4522 4516 4503 4490 4486 4480 4480 4478 4479 4479 4478 4479 4479 4480 4481 4480 4482 4481 4479 4480 4478 4481 4480 4479 4481 4482 4481 4478 4476 4476 4476 4476 4477 4474 4475 4474 4477 4476 4476 4475 4473 4475 4473 4471 4470 4470 4470 4469 4468 4470 4469 4464 4466 4469 4469 4467 4466 4467 4468 4469 4470 4470 4466 4466 4464 4464 4468 4467 4467 4462 4463 4462 4460 4455 4457 4455 4456 4458 4457 4455 4453 4448 4449 4445 4449 4449 4446 4449 4449 4447 4445 4444 4442 4441 4442 4441 4441 4441 4442 4439 4439 4439 4439 4439 4437 4436 4437 4436 4435 4436 4435 4436 4438 4437 4437 4435 4435 4433 4436 4437 4439 4438 4439 4439 4435 4436 4433 4431 4432 4432 4433 4432 4432 4432 4433 4432 4431 4430 4429 4434 4433 4431 4430 4431 4425 4428 4428 4429 4430 4429 4427 4433 4431 4428 4427 4427 4426 4430 4425 4425 4426 4426 4427 4426 4427 4427 4427 4424 4424 4424 4424 4424 4424 4424 4424 4424 4424 4424 4424 4424 4424 4424 4424 4424 4424 4424 4424 4424 4424 4424 4424 4424 4424 4424 4424 4424 4424 4424 4424 4424 4424 4424 4424 4424 4424 4424 4424 4424 4424 4424 4424 4424 4424 4424 4424 4424 4424 4424 4424 4424 4424 4424 4424 4424 4424 4424 4424 4424 4424 4424 4424 4424 4424 4424 4425 4425 4425 4426 4425 4427 4427 4427 4427 4428 4429 4426 4429 4429 4426 4425 4424 4427 4425 4427 4425 4426 4428 4430 4428 4427 4429 4430 4428 4428 4427 4429 4429 4428 4428 4435 4432 4435 4442 4432 4432 4429 4431 4430 4431 4434 4432 4435 4434 4433 4435 4436 4436 4434 4440 4442 4443 4441 4438 4437 4441 4439 4439 4444 4440 4443 4443 4445 4442 4442 4441 4442 4444 4447 4447 4448 4450 4450 4450 4448 4450 4451 4453 4454 4454 4454 4456 4457 4458 4460 4459 4459 4459 4461 4463 4464 4464 4464 4465 4468 4469 4467 4468 4471 4467 4468 4470 4469 4474 4472 4472 4474 4476 4474 4477 4479 4481 4477 4478 4478 4481 4480 4482 4482 4481 4482 4482 4481 4479 4483 4484 4480 4480 4481 4483 4482 4483 4483 4483 4483 4486 4489 4488 4489 4489 4491 4492 4491 4489 4488 4488
