4793 4783 4775 4772 4771 4768 4768 4767 4763 4761 4757 4754 4757 4760 4759 4752 4737 4746 4758 4761 4760 4760 4758 4758 4758 4757 4758 4757 4757 4756 4759 4766 4772 4776 4779 4780 4782 4783 4784 4791 4798 4802 4799 4798 4799 4798 4797 4798 4800 4797 4799 4799 4798 4797 4795 4793 4789 4789 4784 4785 4783 4780 4782 4782 4783 4788 4791 4791 4787 4793 4797 4798 4801 4803 4803 4806 4809 4814 4824 4832 4843 4851 4860 4870 4882 4893 4909 4933 4964 4987 4993 4992 4985 4978 4954 4940 4937 4939 4942 4949 4958 4970 4980 4989 4995 5003 5004 5010 5019 5033 5041 5049 5062 5073 5078 5072 5060 5045 5028 5019 5010 5005 5001 4992 4993 4996 4998 4995 4996 4998 5001 5004 5006 5005 5006 5006 5010 5011 5011 5014 5012 5017 5023 5023 5028 5036 5040 5051 5057 5060 5063 5058 5060 5060 5059 5050 5045 5037 5031 5029 5020 5012 5009 5005 5000 5004 5010 5011 5016 5015 5020 5024 5030 5040 5048 5056 5064 5065 5062 5057 5060 5068 5078 5087 5104 5125 5150 5170 5179 5165 5148 5136 5132 5136 5140 5145 5153 5159 5163 5171 5176 5184 5192 5201 5205 5211 5218 5231 5239 5247 5255 5261 5273 5281 5290 5298 5311 5321 5335 5354 5376 5398 5423 5441 5461 5480 5499 5510 5526 5542 5561 5574 5574 5585 5601 5631 5666 5702 5732 5762 5797 5830 5850 5869 5866 5851 5847 5841 5827 5802 5786 5774 5769 5770 5759 5743 5723 5702 5688 5684 5690 5704 5725 5750 5781 5805 5837 5871 5911 5951 5995 6043 6080 6100 6083 6050 6027 6010 6004 5996 5984 5969 5936 5896 5857 5828 5803 5784 5777 5776 5765 5740 5706 5670 5636 5602 5572 5556 5553 5549 5553 5564 5590 5620 5647 5679 5703 5735 5754 5759 5742 5724 5698 5668 5637 5605 5565 5539 5515 5499 5491 5482 5479 5481 5482 5477 5465 5472 5480 5469 5460 5449 5441 5442 5450 5450 5440 5413 5376 5335 5290 5248 5204 5160 5119 5085 5055 5033 5013 4998 5005 5033 5061 5092 5114 5109 5075 5034 4991 4951 4909 4861 4831 4810 4787 4769 4758 4738 4723 4710 4699 4689 4678 4668 4658 4648 4640 4628 4619 4612 4607 4596 4590 4581 4574 4567 4561 4555 4551 4545 4540 4533 4529 4525 4522 4518 4515 4511 4511 4508 4510 4514 4510 4504 4504 4507 4510 4515 4523 4520 4517 4523 4522 4525 4530 4527 4533 4537 4541 4544 4546 4548 4547 4547 4550 4557 4557 4558 4561 4561 4566 4570 4570 4572 4573 4578 4581 4580 4582 4584 4587 4591 4596 4603 4603 4603 4610 4618 4619 4621 4629 4633 4641 4648 4650 4659 4661 4672 4682 4690 4689 4695 4696 4699 4702 4709 4716 4723 4735 4740 4747 4754 4762 4767 4771 4776 4782 4779 4782 4790 4803 4809 4805 4799 4804 4819 4827 4842 4856 4872 4882 4876 4855 4844 4836 4819 4815 4822 4832 4840 4849 4860 4874 4897 4917 4940 4952 4942 4943 4950 4963 4973 4994 5014 5038 5064 5092 5128 5164 5194 5211 5218 5229 5221 5213 5197 5178 5175 5184 5195 5221 5244 5260 5266 5267 5269 5271 5280 5289 5299 5295 5294 5283 5268 5263 5262 5262 5258 5247 5232 5228 5234 5245 5270 5312 5358 5404 5438 5460 5468 5458 5430 5392 5366 5346 5321 5284 5251 5229 5218 5198 5162 5136 5116 5102 5091 5084 5075 5069 5089 5125 5156 5194 5226 5258 5289 5309 5324 5330 5326 5304 5270 5261 5282 5298 5284 5244
4793 4791 4779 4771 4768 4766 4765 4764 4762 4759 4756 4754 4752 4752 4757 4752 4741 4751 4762 4761 4762 4764 4760 4759 4758 4758 4757 4757 4758 4763 4767 4771 4777 4779 4785 4788 4789 4788 4789 4792 4799 4805 4806 4803 4804 4805 4807 4807 4803 4801 4801 4801 4801 4801 4801 4801 4796 4793 4792 4788 4785 4782 4784 4787 4783 4788 4791 4790 4788 4793 4798 4800 4802 4807 4805 4809 4812 4817 4819 4825 4839 4846 4855 4868 4874 4885 4907 4937 4966 4989 4992 4985 4975 4961 4930 4929 4936 4943 4948 4955 4965 4975 4986 4994 5002 5009 5016 5020 5029 5035 5042 5055 5064 5069 5074 5068 5054 5047 5035 5023 5015 5009 5006 4997 4994 4999 4999 4999 4998 5001 4999 4993 5002 5003 5007 5007 5006 5010 5008 5009 5011 5012 5020 5021 5025 5033 5035 5040 5043 5048 5051 5052 5053 5049 5045 5042 5039 5033 5026 5022 5016 5010 5004 5007 5004 5003 5009 5014 5018 5024 5031 5036 5046 5060 5073 5084 5095 5096 5086 5074 5075 5081 5092 5107 5120 5136 5155 5170 5172 5170 5157 5142 5134 5137 5140 5146 5152 5156 5163 5169 5175 5184 5189 5196 5203 5209 5219 5226 5235 5241 5249 5259 5272 5275 5283 5291 5303 5314 5326 5345 5370 5391 5411 5429 5449 5476 5501 5521 5539 5557 5583 5590 5579 5579 5594 5621 5656 5690 5723 5759 5805 5848 5870 5868 5849 5818 5797 5787 5775 5760 5740 5728 5725 5725 5716 5700 5683 5667 5660 5666 5680 5697 5721 5749 5783 5817 5860 5905 5941 5991 6034 6080 6089 6057 6021 5992 5967 5949 5946 5929 5926 5930 5919 5887 5843 5806 5779 5758 5745 5735 5724 5704 5673 5641 5609 5585 5567 5564 5559 5562 5571 5592 5627 5661 5693 5720 5752 5776 5792 5786 5772 5754 5727 5697 5665 5637 5603 5577 5556 5541 5528 5519 5516 5514 5515 5507 5500 5508 5514 5511 5505 5497 5486 5483 5488 5479 5453 5417 5385 5349 5309 5262 5216 5172 5136 5090 5055 5019 5002 4987 4987 5007 5032 5064 5084 5082 5057 5018 4979 4935 4882 4842 4817 4798 4783 4769 4749 4736 4721 4708 4694 4683 4670 4662 4654 4646 4638 4627 4617 4609 4603 4596 4589 4582 4575 4570 4561 4556 4550 4545 4539 4533 4530 4526 4524 4521 4517 4513 4513 4510 4509 4510 4505 4506 4505 4509 4512 4522 4536 4534 4529 4530 4531 4533 4541 4542 4547 4551 4551 4551 4554 4555 4555 4557 4562 4562 4561 4567 4570 4572 4573 4576 4577 4579 4579 4582 4583 4588 4593 4592 4594 4594 4596 4602 4606 4608 4606 4613 4617 4622 4626 4631 4638 4647 4653 4661 4669 4678 4690 4700 4708 4714 4710 4716 4716 4713 4713 4721 4728 4732 4739 4744 4749 4753 4762 4761 4762 4769 4774 4787 4803 4809 4809 4807 4813 4831 4837 4850 4864 4883 4892 4897 4891 4871 4852 4846 4833 4825 4830 4839 4847 4860 4873 4887 4899 4911 4919 4920 4930 4936 4953 4969 4991 5017 5037 5059 5087 5121 5149 5169 5185 5197 5198 5205 5194 5179 5164 5160 5168 5180 5199 5209 5217 5228 5239 5244 5253 5262 5277 5291 5299 5300 5293 5285 5288 5286 5284 5272 5256 5243 5239 5241 5241 5259 5294 5337 5380 5413 5435 5439 5424 5400 5371 5335 5306 5287 5263 5229 5197 5181 5162 5145 5122 5114 5110 5101 5100 5101 5082 5067 5084 5122 5148 5178 5212 5239 5265 5291 5291 5286 5275 5240 5223 5243 5265 5277 5266
4791 4788 4781 4773 4767 4764 4760 4758 4760 4757 4756 4753 4749 4748 4749 4751 4742 4752 4765 4766 4765 4765 4762 4762 4761 4761 4759 4760 4762 4766 4769 4773 4780 4784 4792 4795 4795 4793 4793 4796 4801 4806 4811 4811 4808 4812 4812 4811 4808 4808 4807 4808 4806 4806 4805 4805 4803 4799 4795 4795 4788 4790 4786 4786 4788 4790 4791 4790 4790 4795 4797 4799 4800 4806 4809 4811 4814 4817 4820 4826 4832 4840 4853 4864 4875 4888 4905 4936 4967 4986 4989 4980 4962 4948 4925 4934 4950 4957 4962 4968 4975 4982 4988 4995 5000 5009 5017 5026 5029 5032 5042 5053 5060 5066 5068 5069 5060 5051 5038 5026 5017 5010 5008 4999 4997 4994 4996 4995 4996 5001 4996 4998 5003 5002 5006 5006 5006 5007 5008 5008 5010 5010 5016 5019 5023 5027 5032 5035 5036 5041 5041 5040 5042 5038 5035 5035 5031 5021 5019 5013 5009 5009 5010 5006 5005 5005 5012 5019 5030 5040 5048 5056 5066 5081 5101 5114 5127 5129 5109 5095 5092 5102 5115 5130 5144 5146 5153 5161 5160 5152 5146 5138 5133 5137 5140 5143 5149 5153 5158 5166 5171 5179 5186 5193 5200 5208 5214 5221 5228 5233 5246 5252 5260 5269 5274 5283 5296 5305 5316 5330 5352 5374 5391 5411 5433 5459 5487 5505 5524 5548 5573 5573 5561 5559 5568 5592 5627 5666 5709 5754 5798 5842 5871 5855 5823 5786 5759 5741 5735 5728 5708 5693 5680 5678 5670 5653 5637 5635 5644 5656 5676 5696 5723 5754 5790 5837 5876 5930 5966 6017 6069 6093 6060 6012 5972 5937 5910 5890 5880 5867 5864 5871 5880 5875 5842 5803 5769 5748 5733 5721 5705 5681 5647 5616 5592 5576 5569 5567 5570 5579 5604 5635 5670 5699 5733 5765 5792 5818 5826 5817 5801 5782 5755 5728 5698 5669 5636 5616 5595 5574 5558 5548 5539 5535 5531 5519 5518 5527 5533 5537 5532 5523 5510 5497 5478 5454 5427 5393 5360 5331 5302 5262 5222 5183 5142 5096 5058 5020 4989 4973 4968 4980 5006 5033 5048 5041 5022 4995 4967 4925 4873 4832 4807 4789 4774 4757 4739 4726 4717 4704 4695 4683 4671 4661 4651 4644 4635 4627 4618 4613 4603 4595 4590 4583 4576 4568 4565 4559 4552 4547 4539 4532 4528 4523 4522 4517 4515 4513 4513 4512 4507 4508 4502 4503 4508 4508 4517 4532 4549 4552 4547 4546 4545 4546 4549 4553 4556 4558 4560 4562 4561 4561 4562 4566 4569 4570 4573 4576 4577 4580 4580 4580 4582 4584 4584 4588 4590 4596 4595 4595 4597 4600 4602 4601 4602 4611 4611 4608 4610 4621 4626 4633 4639 4649 4656 4659 4671 4686 4695 4701 4714 4725 4732 4737 4738 4731 4728 4729 4733 4734 4740 4745 4750 4761 4766 4766 4767 4770 4782 4798 4806 4820 4824 4820 4823 4835 4846 4861 4870 4886 4901 4916 4917 4905 4890 4877 4861 4838 4830 4840 4851 4858 4866 4874 4882 4894 4907 4910 4921 4927 4943 4963 4988 5012 5031 5054 5078 5101 5122 5144 5166 5184 5180 5176 5166 5162 5146 5143 5154 5158 5163 5172 5189 5205 5211 5222 5237 5249 5264 5280 5294 5305 5308 5307 5315 5317 5306 5284 5266 5258 5253 5254 5255 5258 5286 5326 5362 5395 5412 5418 5406 5384 5358 5322 5289 5255 5230 5214 5184 5163 5148 5141 5135 5137 5133 5131 5133 5156 5126 5086 5059 5073 5098 5129 5161 5189 5227 5255 5257 5247 5245 5213 5185 5203 5230 5246 5242
4789 4787 4784 4777 4769 4762 4758 4755 4756 4757 4754 4750 4746 4744 4742 4737 4735 4744 4756 4759 4762 4763 4762 4764 4763 4763 4759 4761 4763 4765 4772 4778 4782 4786 4793 4799 4800 4800 4803 4803 4803 4808 4816 4818 4816 4818 4818 4819 4817 4813 4811 4814 4810 4812 4811 4809 4807 4805 4803 4800 4797 4795 4793 4790 4791 4794 4790 4790 4793 4794 4798 4801 4807 4812 4816 4819 4821 4822 4822 4826 4832 4839 4848 4861 4874 4889 4907 4930 4954 4970 4972 4963 4947 4924 4923 4946 4968 4972 4975 4981 4987 4994 4999 4996 4999 5010 5017 5025 5028 5031 5040 5049 5055 5063 5068 5068 5067 5061 5042 5032 5020 5012 5008 5003 4997 4994 4995 4994 4999 5001 4999 5001 5007 5003 5003 5005 5007 5007 5011 5013 5013 5012 5014 5017 5015 5021 5025 5032 5036 5037 5031 5029 5029 5027 5026 5023 5018 5014 5012 5009 5004 5001 5002 5004 5005 5008 5017 5028 5044 5060 5070 5082 5092 5102 5118 5134 5149 5148 5133 5117 5117 5125 5139 5151 5158 5153 5146 5146 5141 5132 5131 5131 5127 5133 5135 5142 5146 5151 5157 5162 5170 5175 5181 5187 5193 5201 5209 5215 5221 5228 5236 5247 5252 5259 5269 5278 5289 5299 5308 5324 5340 5356 5374 5395 5417 5444 5468 5483 5498 5522 5538 5533 5528 5527 5547 5575 5614 5661 5704 5753 5796 5832 5856 5842 5805 5763 5727 5703 5696 5687 5677 5663 5647 5636 5631 5618 5616 5627 5637 5650 5673 5697 5725 5763 5805 5848 5896 5949 5989 6036 6080 6070 6021 5981 5932 5899 5864 5841 5827 5812 5810 5817 5832 5846 5846 5813 5779 5753 5728 5711 5689 5666 5631 5604 5583 5578 5577 5577 5590 5611 5639 5673 5709 5740 5773 5806 5841 5861 5865 5852 5833 5811 5787 5760 5733 5699 5675 5651 5625 5600 5575 5556 5544 5531 5514 5500 5494 5499 5506 5514 5515 5508 5487 5468 5447 5417 5388 5352 5327 5293 5266 5235 5206 5181 5144 5109 5071 5025 4985 4958 4952 4956 4979 5002 5013 5004 4983 4961 4934 4903 4871 4832 4792 4773 4761 4748 4736 4723 4711 4703 4692 4681 4672 4662 4656 4648 4640 4630 4620 4612 4607 4599 4592 4584 4580 4571 4566 4559 4554 4545 4540 4534 4528 4525 4524 4518 4516 4516 4509 4511 4504 4494 4505 4507 4512 4518 4524 4535 4554 4565 4562 4560 4560 4561 4563 4563 4565 4565 4567 4569 4569 4570 4573 4574 4575 4577 4580 4584 4585 4586 4586 4589 4588 4593 4594 4594 4597 4602 4600 4598 4603 4605 4603 4604 4608 4612 4614 4622 4626 4627 4629 4634 4637 4648 4658 4665 4672 4687 4702 4708 4719 4730 4738 4744 4750 4753 4750 4743 4741 4735 4745 4748 4756 4764 4773 4779 4777 4777 4787 4799 4816 4830 4832 4830 4827 4843 4859 4872 4886 4898 4913 4928 4938 4936 4926 4916 4901 4878 4852 4847 4853 4860 4865 4871 4877 4888 4901 4903 4914 4921 4930 4954 4980 5009 5029 5041 5065 5085 5113 5131 5144 5156 5161 5150 5138 5129 5128 5134 5131 5136 5146 5160 5174 5186 5196 5209 5222 5237 5249 5267 5294 5310 5323 5333 5339 5332 5316 5291 5275 5272 5272 5271 5269 5274 5287 5317 5352 5379 5400 5408 5392 5357 5323 5299 5267 5243 5211 5194 5185 5172 5166 5165 5161 5172 5180 5170 5173 5167 5137 5114 5076 5055 5060 5082 5113 5154 5192 5214 5213 5207 5211 5188 5159 5161 5190 5211 5204
4785 4783 4782 4779 4773 4762 4758 4755 4751 4751 4748 4748 4744 4741 4736 4731 4731 4734 4743 4749 4758 4762 4764 4764 4762 4761 4761 4765 4768 4770 4777 4781 4784 4790 4795 4799 4805 4807 4811 4807 4804 4809 4818 4822 4823 4824 4825 4826 4821 4819 4819 4818 4816 4819 4817 4815 4812 4810 4809 4807 4806 4804 4800 4798 4797 4797 4795 4794 4795 4795 4799 4803 4812 4817 4827 4833 4834 4833 4830 4833 4831 4834 4837 4849 4866 4890 4906 4922 4936 4944 4944 4934 4915 4911 4936 4961 4980 4986 4989 4996 5000 5006 5006 5008 5009 5012 5016 5021 5026 5032 5037 5045 5053 5061 5068 5068 5069 5065 5055 5038 5024 5017 5012 5007 4998 4996 4992 4995 5000 5000 5002 5005 5009 5009 5012 5015 5016 5013 5016 5017 5017 5014 5013 5015 5018 5022 5026 5030 5031 5029 5028 5024 5020 5019 5016 5014 5009 5007 5006 5001 4999 5001 5005 4994 5002 5011 5024 5038 5055 5072 5086 5100 5114 5118 5129 5137 5147 5149 5142 5137 5141 5140 5149 5153 5147 5138 5134 5129 5129 5123 5124 5124 5125 5129 5132 5139 5144 5148 5154 5159 5165 5172 5178 5183 5191 5198 5205 5207 5214 5224 5229 5237 5245 5252 5263 5270 5282 5293 5300 5311 5328 5347 5366 5389 5406 5425 5443 5452 5468 5486 5501 5500 5497 5510 5534 5570 5613 5660 5705 5747 5791 5824 5848 5836 5795 5750 5708 5676 5655 5648 5642 5634 5621 5610 5600 5600 5603 5613 5632 5645 5673 5705 5740 5777 5818 5866 5906 5949 5996 6041 6068 6045 5998 5952 5906 5872 5840 5820 5805 5790 5785 5788 5793 5808 5834 5825 5796 5761 5730 5701 5675 5645 5614 5600 5593 5588 5586 5599 5619 5649 5680 5713 5749 5783 5819 5851 5883 5902 5910 5888 5864 5846 5818 5791 5762 5732 5705 5672 5634 5598 5568 5538 5522 5498 5479 5463 5457 5453 5455 5459 5462 5456 5442 5422 5396 5371 5343 5313 5277 5250 5226 5197 5166 5151 5129 5105 5059 5015 4975 4945 4934 4928 4942 4973 4979 4970 4948 4923 4891 4864 4843 4817 4776 4763 4752 4744 4733 4722 4709 4701 4691 4684 4674 4664 4656 4648 4642 4632 4623 4617 4610 4603 4598 4586 4582 4573 4568 4561 4555 4549 4541 4534 4530 4526 4524 4517 4517 4514 4513 4509 4505 4506 4510 4512 4512 4523 4529 4537 4553 4565 4571 4574 4572 4571 4572 4568 4572 4575 4576 4575 4576 4578 4582 4583 4581 4586 4601 4600 4594 4595 4596 4597 4598 4600 4599 4599 4597 4603 4601 4604 4606 4607 4607 4610 4612 4618 4614 4620 4632 4631 4633 4636 4642 4651 4662 4660 4672 4689 4703 4711 4719 4727 4732 4739 4752 4756 4763 4768 4769 4760 4746 4753 4759 4765 4775 4787 4789 4790 4795 4807 4821 4842 4848 4834 4834 4850 4868 4887 4898 4910 4923 4937 4952 4965 4968 4967 4957 4934 4896 4871 4863 4862 4869 4869 4875 4882 4893 4896 4905 4916 4928 4950 4969 4994 5007 5029 5044 5062 5088 5111 5127 5132 5137 5127 5110 5107 5113 5114 5121 5141 5157 5176 5192 5197 5199 5213 5225 5239 5255 5277 5301 5324 5347 5361 5355 5339 5320 5302 5294 5302 5302 5294 5291 5292 5303 5329 5356 5380 5396 5400 5382 5351 5317 5284 5248 5234 5222 5217 5212 5210 5204 5199 5194 5205 5226 5218 5210 5197 5169 5130 5096 5064 5043 5049 5073 5107 5143 5162 5161 5157 5168 5164 5142 5128 5154 5172 5164
4779 4779 4778 4778 4774 4768 4757 4753 4749 4745 4744 4742 4741 4739 4733 4731 4731 4731 4733 4737 4746 4757 4761 4764 4760 4761 4760 4766 4769 4772 4775 4779 4787 4793 4801 4806 4809 4812 4815 4812 4811 4814 4820 4828 4828 4831 4829 4830 4828 4825 4823 4819 4820 4824 4823 4819 4818 4815 4814 4814 4810 4808 4807 4805 4803 4799 4801 4801 4798 4798 4803 4810 4819 4823 4831 4840 4846 4843 4841 4844 4842 4841 4841 4847 4856 4870 4889 4902 4907 4912 4913 4897 4900 4919 4946 4970 4984 4993 4998 5004 5011 5016 5017 5021 5021 5017 5017 5024 5026 5031 5039 5043 5051 5059 5067 5069 5072 5069 5060 5050 5033 5023 5015 5008 4999 4991 4993 4998 5000 5003 5003 5009 5012 5019 5022 5027 5027 5025 5021 5021 5017 5019 5019 5019 5023 5025 5025 5023 5026 5021 5017 5017 5014 5013 5009 5007 5002 5001 5001 4998 5000 5000 5004 5003 5006 5019 5032 5047 5063 5077 5091 5103 5112 5118 5120 5131 5137 5141 5143 5152 5155 5153 5149 5139 5130 5127 5121 5119 5119 5119 5117 5119 5122 5124 5130 5137 5141 5143 5149 5155 5161 5167 5173 5178 5185 5192 5197 5204 5213 5217 5221 5227 5235 5244 5254 5258 5268 5279 5292 5307 5318 5335 5355 5378 5393 5404 5422 5435 5445 5454 5465 5470 5477 5496 5526 5566 5612 5657 5704 5745 5777 5813 5834 5817 5778 5731 5690 5657 5633 5614 5607 5603 5592 5587 5586 5585 5592 5602 5621 5644 5681 5710 5747 5791 5828 5870 5903 5929 5974 6012 6029 6025 5982 5937 5894 5861 5831 5814 5803 5793 5783 5778 5772 5777 5795 5809 5795 5763 5721 5686 5653 5625 5613 5608 5602 5598 5613 5634 5662 5690 5728 5759 5791 5824 5862 5898 5926 5949 5945 5920 5898 5878 5850 5815 5785 5746 5700 5659 5615 5577 5541 5508 5482 5460 5440 5418 5406 5402 5397 5405 5405 5399 5386 5370 5347 5324 5293 5263 5232 5200 5180 5158 5130 5107 5088 5071 5042 5004 4968 4938 4920 4911 4909 4927 4937 4929 4907 4878 4851 4829 4810 4790 4773 4761 4753 4743 4735 4723 4715 4704 4693 4686 4677 4666 4659 4650 4638 4634 4625 4618 4610 4604 4598 4589 4582 4573 4569 4561 4553 4547 4539 4533 4528 4527 4521 4519 4516 4513 4512 4510 4503 4506 4512 4508 4513 4522 4533 4544 4555 4568 4575 4579 4579 4580 4579 4577 4581 4584 4586 4586 4589 4590 4592 4593 4596 4605 4631 4633 4611 4610 4612 4609 4607 4608 4607 4603 4600 4606 4608 4609 4611 4610 4613 4619 4618 4620 4625 4630 4634 4634 4635 4637 4644 4655 4663 4668 4674 4685 4695 4703 4711 4717 4726 4733 4746 4755 4765 4772 4777 4778 4764 4755 4765 4769 4778 4792 4799 4810 4813 4813 4823 4841 4855 4846 4840 4855 4874 4893 4908 4924 4935 4952 4973 4995 5011 5015 5013 4990 4953 4916 4902 4880 4875 4875 4877 4882 4887 4893 4899 4913 4923 4942 4957 4972 4992 5012 5028 5042 5061 5084 5101 5103 5103 5097 5099 5099 5101 5110 5131 5154 5174 5200 5217 5221 5222 5232 5244 5260 5275 5299 5327 5354 5379 5385 5368 5347 5330 5314 5317 5334 5334 5319 5309 5300 5310 5343 5369 5385 5388 5383 5367 5358 5323 5289 5273 5268 5266 5259 5253 5254 5248 5244 5241 5242 5263 5277 5258 5249 5221 5163 5127 5085 5052 5034 5041 5066 5097 5106 5110 5108 5119 5118 5102 5093 5117 5132 5126
4765 4768 4767 4767 4768 4767 4757 4749 4746 4743 4740 4740 4736 4733 4731 4729 4727 4728 4728 4728 4734 4746 4759 4767 4765 4764 4761 4762 4765 4769 4779 4782 4787 4794 4804 4807 4812 4816 4818 4815 4817 4820 4825 4832 4836 4836 4835 4834 4832 4829 4828 4826 4828 4829 4831 4827 4824 4827 4820 4817 4816 4813 4809 4806 4806 4806 4805 4803 4803 4805 4804 4813 4819 4823 4832 4840 4853 4856 4855 4858 4856 4856 4853 4854 4859 4859 4863 4871 4876 4877 4881 4892 4913 4937 4957 4970 4983 4994 5001 5011 5018 5025 5029 5029 5026 5021 5021 5023 5027 5034 5039 5045 5053 5061 5067 5071 5074 5072 5065 5051 5038 5029 5018 5009 5000 4993 4990 4996 4999 5006 5009 5015 5020 5028 5036 5036 5032 5026 5018 5016 5013 5015 5020 5022 5022 5022 5019 5015 5013 5009 5007 5005 5003 5001 5002 5001 4999 5001 4998 4997 4998 4998 5007 5010 5021 5033 5042 5055 5066 5073 5083 5094 5102 5110 5116 5122 5130 5137 5147 5158 5163 5158 5152 5140 5125 5122 5114 5109 5110 5111 5112 5115 5119 5121 5125 5131 5135 5137 5145 5149 5154 5160 5168 5172 5181 5188 5194 5198 5202 5208 5216 5221 5228 5238 5245 5252 5260 5271 5285 5299 5311 5326 5339 5358 5376 5387 5401 5417 5424 5430 5439 5445 5466 5488 5517 5561 5602 5647 5692 5733 5762 5789 5793 5777 5744 5699 5669 5637 5616 5594 5580 5572 5567 5566 5569 5574 5582 5596 5614 5643 5678 5718 5755 5799 5832 5862 5883 5908 5942 5969 5984 5993 5972 5930 5892 5856 5825 5807 5798 5786 5776 5767 5761 5758 5758 5766 5760 5739 5702 5662 5638 5627 5620 5616 5614 5625 5644 5667 5703 5734 5770 5805 5833 5867 5906 5944 5973 5988 5974 5948 5928 5900 5865 5819 5773 5723 5679 5636 5591 5553 5517 5490 5457 5427 5399 5374 5363 5349 5340 5347 5353 5345 5331 5315 5294 5271 5251 5227 5194 5159 5132 5109 5096 5068 5048 5034 5007 4983 4955 4927 4909 4897 4893 4884 4889 4885 4874 4850 4824 4808 4794 4781 4772 4763 4751 4744 4735 4722 4714 4706 4699 4690 4675 4667 4659 4652 4645 4637 4629 4621 4611 4604 4596 4588 4579 4571 4566 4558 4549 4550 4539 4536 4528 4524 4520 4516 4515 4515 4509 4507 4508 4513 4518 4513 4507 4517 4529 4545 4563 4579 4585 4587 4595 4601 4601 4601 4600 4602 4605 4603 4605 4608 4612 4616 4630 4656 4668 4664 4647 4646 4643 4628 4623 4620 4617 4615 4614 4613 4615 4617 4618 4616 4618 4623 4622 4623 4627 4631 4627 4630 4637 4641 4644 4651 4657 4670 4679 4693 4700 4711 4716 4723 4736 4742 4751 4756 4763 4772 4774 4780 4779 4776 4772 4776 4780 4788 4801 4818 4831 4828 4827 4838 4850 4853 4863 4866 4875 4896 4916 4931 4944 4969 4990 5015 5038 5056 5057 5036 4997 4976 4961 4938 4918 4911 4906 4900 4897 4898 4905 4913 4921 4939 4954 4961 4979 4996 5010 5025 5039 5061 5076 5081 5076 5077 5081 5089 5108 5126 5148 5168 5192 5223 5250 5255 5251 5258 5279 5298 5318 5341 5369 5394 5406 5392 5371 5353 5331 5327 5338 5345 5348 5334 5314 5296 5295 5313 5341 5358 5346 5345 5349 5347 5321 5304 5303 5309 5313 5307 5301 5301 5298 5295 5294 5293 5310 5317 5303 5292 5259 5202 5147 5101 5069 5043 5026 5031 5049 5052 5061 5066 5076 5074 5061 5063 5087 5108 5100
4759 4759 4758 4755 4753 4751 4746 4746 4744 4741 4737 4737 4733 4729 4729 4728 4726 4727 4725 4724 4728 4736 4745 4756 4760 4762 4762 4763 4765 4768 4775 4781 4786 4792 4800 4806 4812 4819 4822 4821 4821 4825 4833 4838 4844 4845 4842 4839 4837 4834 4832 4833 4835 4834 4835 4834 4832 4832 4828 4823 4820 4818 4815 4815 4812 4810 4808 4805 4803 4803 4806 4814 4817 4824 4832 4845 4853 4860 4866 4870 4869 4872 4871 4870 4870 4872 4872 4875 4880 4885 4888 4900 4922 4941 4959 4968 4981 4991 5000 5008 5017 5025 5029 5030 5029 5023 5022 5025 5031 5037 5041 5047 5059 5066 5072 5078 5082 5076 5068 5050 5044 5033 5021 5011 5008 5001 4994 4996 4999 5003 5008 5017 5021 5029 5035 5035 5027 5020 5014 5007 5008 5013 5018 5021 5016 5017 5012 5010 5007 5004 5001 5000 5000 4996 4997 4998 4996 4998 4996 4996 5000 5002 5009 5014 5025 5037 5041 5050 5061 5070 5079 5089 5098 5104 5117 5123 5131 5141 5152 5164 5169 5164 5155 5146 5132 5123 5114 5108 5108 5106 5107 5112 5114 5119 5123 5126 5131 5135 5140 5145 5149 5153 5166 5168 5172 5180 5187 5190 5195 5202 5208 5214 5218 5227 5234 5240 5250 5263 5278 5289 5305 5319 5332 5342 5358 5372 5384 5394 5401 5407 5421 5434 5453 5480 5510 5552 5597 5638 5674 5711 5736 5750 5745 5727 5694 5662 5629 5602 5583 5570 5559 5552 5550 5549 5551 5557 5564 5586 5611 5644 5687 5730 5770 5805 5822 5834 5845 5873 5897 5922 5943 5961 5964 5932 5888 5854 5821 5800 5790 5779 5770 5761 5751 5746 5743 5739 5728 5706 5676 5649 5639 5634 5629 5627 5630 5645 5671 5705 5734 5774 5805 5844 5880 5914 5952 5983 6011 6006 5988 5970 5946 5910 5863 5810 5768 5715 5670 5621 5576 5539 5510 5481 5462 5442 5423 5388 5362 5332 5301 5290 5298 5292 5276 5267 5255 5231 5207 5178 5152 5120 5099 5070 5052 5029 5010 4997 4976 4955 4936 4919 4906 4896 4886 4873 4862 4851 4839 4828 4820 4803 4795 4785 4778 4768 4757 4746 4736 4725 4714 4709 4699 4688 4681 4676 4671 4663 4654 4648 4633 4625 4616 4609 4603 4593 4577 4566 4561 4554 4545 4543 4537 4531 4525 4520 4520 4516 4516 4515 4507 4506 4510 4514 4505 4507 4508 4514 4523 4543 4574 4598 4604 4616 4638 4660 4652 4647 4639 4633 4637 4632 4627 4634 4636 4643 4669 4721 4724 4709 4711 4710 4678 4651 4644 4637 4630 4627 4626 4626 4625 4626 4625 4622 4624 4623 4628 4632 4631 4636 4636 4638 4641 4645 4645 4644 4645 4657 4673 4681 4692 4703 4715 4725 4738 4742 4747 4745 4749 4756 4763 4775 4787 4789 4793 4792 4794 4794 4799 4811 4826 4838 4846 4855 4860 4865 4873 4879 4889 4903 4921 4934 4952 4977 5001 5026 5047 5071 5088 5073 5045 5020 5009 4999 4976 4956 4937 4928 4919 4911 4910 4919 4927 4937 4949 4965 4981 4992 5000 5015 5030 5035 5047 5054 5061 5072 5078 5098 5129 5155 5174 5193 5219 5255 5287 5294 5288 5296 5321 5350 5368 5385 5413 5428 5415 5393 5371 5350 5331 5325 5335 5342 5342 5331 5311 5288 5268 5272 5294 5314 5304 5303 5314 5317 5317 5316 5325 5332 5340 5334 5327 5329 5336 5348 5343 5330 5314 5297 5285 5280 5254 5218 5169 5135 5106 5071 5041 5026 5016 5017 5029 5034 5041 5038 5033 5042 5072 5088 5072
4749 4752 4753 4750 4748 4745 4744 4739 4739 4736 4735 4733 4732 4729 4727 4727 4724 4725 4723 4722 4723 4729 4734 4746 4756 4761 4763 4762 4762 4765 4769 4776 4782 4790 4799 4805 4812 4820 4825 4826 4828 4829 4834 4843 4848 4849 4847 4845 4842 4834 4836 4836 4840 4842 4841 4837 4837 4840 4839 4831 4829 4824 4820 4818 4814 4813 4813 4809 4807 4806 4810 4816 4816 4825 4836 4842 4852 4864 4873 4879 4882 4888 4892 4897 4903 4903 4903 4907 4913 4919 4913 4909 4913 4937 4956 4967 4979 4987 4995 5005 5014 5021 5027 5031 5031 5025 5023 5026 5034 5040 5046 5053 5062 5072 5079 5085 5089 5083 5073 5062 5050 5033 5023 5019 5007 4999 4996 4999 5003 5006 5007 5012 5019 5026 5028 5027 5019 5010 5004 5002 5002 5008 5012 5013 5012 5006 5001 5001 5001 4997 4996 4996 4996 4993 4994 4998 4996 4997 4998 5000 5006 5012 5019 5022 5027 5036 5042 5051 5063 5074 5078 5090 5103 5113 5122 5130 5142 5155 5168 5181 5186 5181 5172 5158 5141 5127 5117 5109 5106 5105 5104 5106 5110 5114 5119 5123 5127 5132 5137 5139 5143 5147 5156 5161 5168 5174 5181 5183 5188 5194 5197 5203 5213 5218 5228 5234 5245 5254 5272 5282 5293 5309 5319 5332 5349 5361 5370 5377 5384 5398 5409 5425 5443 5473 5502 5540 5589 5624 5651 5684 5703 5704 5693 5676 5648 5618 5589 5564 5548 5536 5533 5532 5531 5532 5533 5542 5555 5584 5615 5650 5694 5735 5772 5795 5794 5791 5805 5832 5854 5879 5901 5915 5919 5915 5880 5851 5819 5804 5796 5786 5774 5759 5748 5739 5727 5719 5704 5683 5662 5654 5647 5641 5638 5640 5652 5672 5699 5732 5766 5800 5836 5881 5925 5961 5989 5996 5987 5970 5962 5956 5940 5902 5860 5807 5761 5709 5661 5615 5572 5542 5519 5508 5502 5482 5452 5408 5378 5346 5307 5263 5243 5239 5227 5217 5201 5183 5159 5135 5107 5090 5065 5046 5028 5011 4997 4980 4962 4947 4934 4920 4910 4901 4888 4875 4866 4854 4841 4831 4824 4811 4800 4794 4782 4772 4760 4749 4739 4726 4719 4711 4703 4700 4696 4688 4682 4672 4668 4660 4646 4636 4628 4627 4629 4598 4569 4562 4555 4549 4545 4537 4533 4530 4525 4521 4520 4516 4511 4507 4510 4505 4506 4509 4509 4506 4507 4514 4528 4546 4583 4628 4652 4683 4711 4715 4696 4714 4719 4679 4683 4669 4662 4661 4663 4670 4704 4779 4780 4770 4775 4762 4718 4681 4670 4659 4648 4641 4643 4644 4650 4653 4641 4633 4630 4626 4627 4633 4633 4636 4639 4642 4644 4648 4649 4653 4654 4657 4661 4664 4674 4691 4702 4711 4724 4728 4728 4742 4756 4770 4777 4778 4786 4797 4806 4808 4813 4811 4808 4810 4819 4827 4847 4862 4875 4877 4876 4887 4902 4913 4921 4939 4959 4973 4997 5019 5037 5062 5085 5099 5090 5073 5073 5058 5029 5010 4990 4964 4947 4932 4921 4922 4928 4940 4965 4988 5008 5022 5018 5013 5020 5023 5034 5042 5053 5062 5081 5107 5142 5171 5195 5218 5242 5270 5296 5312 5324 5340 5361 5387 5411 5428 5439 5437 5418 5391 5372 5346 5320 5313 5315 5322 5322 5314 5299 5269 5243 5239 5252 5273 5275 5270 5279 5297 5302 5310 5319 5326 5334 5332 5323 5326 5345 5368 5365 5326 5282 5255 5244 5241 5230 5193 5173 5168 5166 5121 5081 5049 5029 5017 5010 5011 5012 5015 5016 5027 5056 5055 5037
4748 4746 4745 4745 4742 4744 4742 4739 4736 4735 4734 4732 4731 4729 4727 4726 4725 4723 4721 4724 4720 4721 4727 4738 4747 4757 4759 4762 4764 4765 4768 4770 4778 4788 4796 4803 4810 4819 4827 4832 4834 4837 4841 4843 4850 4855 4852 4850 4849 4844 4843 4844 4848 4848 4847 4845 4844 4844 4847 4842 4836 4831 4825 4822 4817 4818 4815 4811 4808 4808 4814 4816 4822 4831 4839 4849 4860 4868 4878 4886 4894 4899 4910 4918 4929 4932 4935 4944 4956 4959 4947 4942 4937 4939 4950 4959 4972 4982 4994 4999 5008 5019 5024 5026 5026 5023 5024 5029 5035 5041 5049 5055 5061 5073 5080 5090 5095 5091 5078 5066 5053 5040 5026 5020 5013 5001 4999 5003 5009 5010 5008 5008 5013 5018 5020 5016 5012 5004 4997 4996 4996 5000 5001 5004 5003 4999 4996 4994 4993 4991 4993 4989 4992 4997 4998 4999 4997 4995 4997 5006 5011 5018 5030 5036 5038 5040 5048 5057 5067 5080 5090 5101 5114 5123 5134 5145 5159 5171 5186 5197 5200 5192 5184 5172 5157 5141 5125 5112 5106 5102 5103 5105 5107 5111 5114 5119 5123 5127 5132 5135 5139 5143 5151 5156 5160 5167 5173 5179 5184 5191 5193 5197 5202 5208 5221 5228 5242 5247 5258 5275 5286 5295 5307 5319 5335 5344 5353 5361 5373 5385 5394 5408 5433 5460 5491 5530 5563 5587 5616 5645 5655 5648 5637 5621 5604 5579 5555 5531 5520 5513 5513 5514 5515 5514 5520 5526 5548 5580 5615 5655 5694 5730 5756 5758 5748 5747 5769 5797 5816 5838 5850 5859 5867 5875 5872 5850 5830 5819 5816 5811 5795 5777 5750 5734 5722 5710 5696 5680 5668 5659 5656 5653 5652 5658 5673 5695 5731 5764 5792 5827 5869 5906 5949 5983 5992 5967 5942 5921 5911 5903 5894 5878 5852 5806 5759 5708 5663 5619 5587 5572 5560 5554 5544 5508 5465 5421 5389 5351 5318 5280 5240 5212 5190 5175 5161 5144 5129 5104 5085 5070 5055 5036 5023 5010 4999 4984 4971 4956 4942 4926 4915 4907 4894 4880 4871 4861 4853 4839 4826 4816 4813 4802 4791 4779 4769 4756 4747 4739 4731 4725 4717 4712 4708 4703 4699 4699 4707 4710 4688 4669 4661 4664 4639 4573 4563 4554 4551 4548 4541 4535 4532 4527 4524 4521 4519 4517 4514 4506 4513 4509 4502 4504 4506 4507 4509 4518 4534 4561 4596 4656 4707 4745 4759 4754 4738 4756 4785 4759 4745 4731 4722 4705 4698 4711 4743 4800 4815 4819 4833 4815 4768 4729 4707 4704 4683 4670 4667 4679 4691 4683 4660 4647 4640 4634 4631 4632 4636 4640 4641 4646 4651 4655 4656 4661 4662 4667 4669 4674 4678 4682 4687 4698 4707 4718 4733 4747 4753 4761 4767 4773 4780 4789 4800 4810 4818 4828 4834 4827 4825 4826 4835 4848 4864 4876 4878 4886 4898 4910 4921 4942 4947 4960 4964 4994 5021 5044 5073 5097 5120 5123 5124 5106 5082 5064 5036 5013 4982 4953 4940 4931 4934 4947 4964 4989 5018 5038 5040 5033 5030 5039 5055 5071 5091 5085 5073 5092 5120 5141 5172 5207 5234 5254 5271 5291 5319 5346 5368 5388 5402 5410 5413 5419 5411 5392 5364 5337 5314 5296 5288 5287 5292 5287 5277 5257 5234 5220 5225 5234 5240 5240 5257 5280 5297 5293 5288 5303 5308 5310 5295 5315 5343 5353 5338 5312 5276 5229 5199 5196 5196 5166 5146 5158 5184 5187 5158 5103 5063 5039 5017 5002 5001 5000 5003 5011 5019 5016 5006
4747 4745 4742 4742 4741 4741 4739 4737 4736 4734 4732 4732 4730 4729 4727 4725 4725 4724 4723 4724 4721 4723 4723 4730 4742 4751 4757 4761 4761 4762 4765 4770 4772 4781 4790 4799 4806 4817 4827 4834 4837 4844 4851 4850 4854 4860 4860 4857 4855 4853 4849 4851 4852 4853 4856 4853 4853 4852 4853 4848 4842 4838 4835 4827 4826 4825 4821 4818 4815 4811 4816 4822 4824 4834 4843 4853 4860 4874 4882 4892 4899 4907 4918 4929 4938 4948 4959 4972 4987 4987 4974 4965 4959 4956 4955 4961 4970 4979 4987 4997 5006 5013 5017 5019 5020 5021 5023 5026 5035 5042 5049 5054 5064 5073 5082 5093 5099 5097 5084 5066 5050 5038 5027 5020 5013 5005 4999 5004 5007 5006 5007 5007 5008 5010 5007 5007 5001 4996 4995 4992 4991 4992 4993 4997 4996 4990 4991 4991 4987 4985 4989 4990 4998 5007 5013 5014 5006 4999 4999 5008 5015 5024 5036 5045 5051 5057 5065 5076 5084 5092 5105 5114 5126 5132 5144 5153 5166 5180 5196 5206 5211 5207 5198 5188 5177 5157 5141 5122 5108 5100 5098 5102 5102 5104 5108 5115 5120 5121 5125 5131 5135 5141 5147 5154 5158 5162 5164 5171 5175 5184 5185 5192 5199 5205 5215 5223 5233 5241 5248 5261 5273 5286 5296 5307 5322 5332 5343 5350 5362 5375 5388 5406 5428 5457 5483 5511 5528 5551 5576 5604 5613 5602 5586 5573 5559 5541 5523 5504 5497 5495 5497 5496 5500 5500 5501 5513 5543 5577 5609 5645 5678 5704 5715 5711 5703 5703 5724 5743 5762 5778 5789 5796 5811 5834 5863 5863 5850 5845 5841 5834 5814 5792 5765 5739 5719 5703 5692 5682 5674 5670 5668 5664 5668 5680 5699 5735 5767 5802 5828 5862 5901 5938 5972 5978 5959 5929 5900 5873 5858 5840 5837 5837 5831 5806 5762 5718 5675 5642 5627 5619 5607 5596 5575 5534 5495 5458 5428 5386 5346 5308 5270 5235 5213 5193 5173 5156 5141 5121 5109 5093 5075 5064 5059 5049 5035 5017 5002 4986 4962 4938 4916 4906 4901 4891 4884 4872 4859 4848 4839 4831 4825 4813 4802 4793 4780 4769 4757 4747 4743 4737 4732 4726 4723 4726 4729 4739 4749 4767 4774 4731 4708 4678 4621 4583 4563 4548 4543 4542 4537 4531 4527 4523 4520 4516 4516 4514 4512 4517 4513 4509 4504 4503 4503 4503 4509 4519 4538 4566 4606 4666 4711 4760 4783 4795 4788 4795 4816 4816 4825 4806 4781 4758 4740 4751 4783 4819 4847 4875 4886 4855 4813 4792 4754 4746 4729 4713 4705 4722 4731 4704 4670 4655 4649 4642 4638 4636 4641 4644 4646 4652 4657 4659 4664 4667 4668 4672 4673 4681 4682 4684 4688 4690 4697 4708 4723 4734 4741 4751 4767 4781 4787 4794 4802 4807 4813 4829 4843 4842 4845 4839 4838 4842 4852 4863 4872 4881 4891 4903 4915 4925 4949 4954 4962 4980 5009 5029 5052 5073 5104 5134 5146 5137 5127 5109 5069 5037 5008 4975 4960 4944 4940 4948 4962 4979 5005 5021 5031 5040 5049 5059 5083 5109 5140 5132 5109 5092 5092 5106 5132 5165 5197 5219 5237 5257 5282 5313 5331 5336 5349 5359 5380 5401 5402 5385 5355 5325 5309 5294 5273 5258 5248 5245 5249 5235 5215 5198 5198 5200 5208 5227 5254 5284 5297 5286 5271 5265 5279 5273 5275 5305 5338 5332 5296 5268 5242 5219 5183 5152 5152 5135 5115 5126 5158 5192 5192 5167 5110 5081 5052 5035 5016 4997 4994 4993 4992 4992 4994
4747 4745 4743 4741 4741 4739 4738 4737 4735 4733 4732 4731 4730 4729 4728 4726 4725 4724 4722 4722 4728 4723 4722 4725 4736 4746 4752 4755 4758 4759 4762 4766 4771 4777 4784 4796 4806 4816 4827 4837 4842 4848 4854 4857 4858 4862 4864 4862 4858 4858 4858 4857 4859 4863 4863 4859 4858 4860 4859 4855 4847 4844 4839 4833 4833 4831 4827 4822 4817 4815 4815 4822 4831 4839 4844 4854 4864 4876 4886 4895 4902 4916 4929 4939 4950 4962 4976 4990 5003 5003 4992 4980 4974 4969 4965 4964 4964 4970 4980 4993 5001 5008 5013 5013 5014 5017 5020 5023 5034 5043 5050 5059 5068 5074 5085 5097 5104 5102 5089 5070 5054 5041 5032 5025 5014 5009 4999 4998 5000 5004 5005 5004 5003 5003 4996 4997 4991 4990 4991 4985 4981 4984 4984 4986 4985 4985 4988 4989 4981 4983 4989 4997 5010 5018 5018 5016 5013 5004 5001 5007 5017 5026 5038 5046 5058 5068 5080 5097 5107 5114 5122 5129 5135 5140 5150 5163 5171 5184 5199 5202 5203 5203 5203 5200 5188 5171 5155 5135 5119 5105 5094 5096 5098 5101 5104 5110 5113 5119 5123 5126 5131 5135 5143 5148 5150 5154 5160 5166 5169 5174 5181 5186 5194 5202 5210 5220 5228 5237 5249 5257 5267 5276 5288 5299 5309 5321 5332 5336 5350 5371 5393 5421 5446 5470 5483 5490 5493 5515 5548 5572 5573 5553 5540 5527 5514 5503 5485 5478 5477 5475 5475 5477 5478 5482 5489 5507 5539 5570 5600 5628 5650 5666 5665 5660 5657 5668 5682 5696 5712 5727 5735 5748 5768 5800 5841 5867 5879 5878 5861 5841 5821 5802 5780 5756 5728 5707 5696 5687 5682 5679 5677 5677 5689 5709 5735 5765 5801 5834 5867 5900 5935 5968 5994 5979 5938 5898 5860 5834 5811 5793 5783 5784 5782 5775 5763 5729 5695 5682 5680 5672 5659 5637 5604 5570 5538 5504 5468 5423 5382 5345 5300 5283 5273 5247 5220 5205 5190 5166 5157 5144 5121 5108 5102 5095 5084 5062 5041 5019 4993 4965 4934 4924 4913 4903 4891 4877 4869 4863 4850 4845 4838 4829 4816 4809 4795 4780 4769 4762 4757 4755 4751 4744 4744 4758 4760 4773 4793 4818 4823 4815 4744 4669 4651 4604 4565 4548 4539 4535 4532 4530 4526 4524 4520 4515 4512 4512 4509 4517 4512 4509 4510 4504 4506 4508 4509 4516 4536 4566 4609 4660 4676 4712 4757 4790 4812 4822 4842 4858 4880 4859 4817 4804 4788 4792 4827 4865 4887 4922 4935 4902 4859 4828 4800 4791 4776 4769 4758 4758 4745 4709 4676 4663 4654 4649 4644 4643 4643 4647 4653 4656 4660 4664 4670 4672 4680 4682 4683 4687 4692 4697 4699 4705 4705 4709 4712 4718 4724 4734 4758 4783 4801 4810 4815 4822 4825 4829 4835 4847 4855 4859 4854 4853 4857 4866 4873 4879 4886 4891 4907 4921 4931 4948 4960 4971 4983 5011 5031 5054 5081 5111 5137 5151 5154 5137 5107 5071 5036 5001 4977 4961 4954 4955 4965 4976 4992 5007 5018 5030 5048 5070 5099 5136 5168 5174 5158 5144 5123 5113 5110 5129 5158 5178 5196 5221 5246 5267 5285 5297 5317 5340 5371 5397 5408 5397 5369 5348 5337 5319 5294 5274 5244 5224 5210 5197 5185 5177 5172 5181 5204 5230 5256 5282 5299 5286 5262 5253 5253 5250 5258 5300 5332 5323 5281 5243 5199 5175 5153 5135 5110 5095 5087 5106 5139 5171 5178 5166 5149 5132 5094 5072 5036 4996 4986 4984 4984 4989 4990
4748 4745 4745 4743 4741 4738 4738 4737 4735 4734 4732 4731 4730 4727 4726 4726 4725 4725 4724 4724 4728 4723 4721 4721 4726 4737 4743 4746 4750 4756 4760 4764 4770 4774 4782 4795 4804 4811 4821 4832 4839 4846 4854 4861 4864 4867 4869 4869 4869 4867 4867 4866 4865 4872 4870 4866 4864 4866 4864 4859 4854 4849 4844 4840 4839 4835 4829 4823 4818 4817 4819 4822 4833 4842 4849 4857 4867 4877 4887 4898 4907 4920 4932 4943 4955 4969 4980 4999 5013 5012 5004 4994 4984 4978 4975 4968 4967 4973 4977 4981 4992 4993 5000 5002 5010 5015 5021 5028 5034 5047 5054 5063 5074 5080 5091 5099 5108 5106 5093 5076 5055 5041 5031 5023 5014 5007 4999 4999 4996 4996 4997 5003 4998 4997 4994 4989 4986 4986 4981 4982 4980 4979 4979 4979 4978 4978 4983 4986 4986 4992 5002 5011 5018 5017 5016 5012 5007 5003 5003 5007 5013 5026 5038 5049 5060 5070 5086 5099 5107 5113 5120 5128 5130 5136 5150 5159 5173 5188 5192 5184 5181 5183 5182 5182 5179 5170 5152 5145 5131 5112 5094 5091 5094 5097 5100 5104 5110 5112 5121 5122 5126 5130 5133 5139 5143 5146 5151 5158 5164 5169 5173 5183 5191 5198 5208 5214 5222 5234 5241 5247 5256 5266 5277 5289 5300 5307 5316 5328 5351 5376 5403 5428 5456 5467 5463 5457 5463 5486 5516 5536 5535 5515 5498 5484 5477 5464 5457 5457 5458 5460 5460 5462 5463 5466 5480 5506 5539 5565 5587 5604 5613 5620 5624 5622 5625 5637 5644 5653 5669 5684 5707 5726 5748 5787 5833 5867 5888 5889 5872 5849 5836 5823 5802 5774 5742 5716 5707 5700 5696 5691 5693 5700 5714 5738 5767 5793 5827 5865 5901 5938 5967 5993 5997 5963 5923 5875 5837 5799 5771 5751 5735 5727 5730 5731 5727 5711 5709 5721 5725 5714 5695 5673 5648 5614 5584 5546 5506 5462 5419 5372 5352 5339 5327 5304 5276 5256 5232 5210 5205 5189 5165 5157 5152 5141 5125 5105 5072 5043 5010 4985 4953 4934 4922 4907 4898 4888 4883 4877 4867 4860 4857 4848 4839 4832 4825 4816 4799 4785 4778 4774 4765 4765 4779 4797 4804 4822 4850 4870 4847 4800 4751 4700 4641 4594 4566 4552 4542 4534 4528 4521 4521 4520 4515 4514 4510 4507 4511 4513 4513 4509 4511 4518 4514 4502 4502 4511 4529 4557 4599 4631 4641 4675 4714 4742 4762 4790 4817 4845 4866 4884 4874 4854 4851 4845 4868 4913 4941 4972 4975 4944 4908 4865 4837 4835 4824 4818 4800 4769 4737 4711 4686 4671 4662 4655 4652 4654 4650 4653 4657 4659 4665 4670 4675 4681 4683 4689 4695 4697 4704 4708 4709 4715 4721 4720 4726 4731 4734 4732 4738 4751 4779 4800 4814 4830 4843 4848 4848 4856 4864 4873 4874 4868 4874 4874 4876 4885 4892 4901 4910 4921 4935 4951 4964 4972 4977 4995 5007 5041 5057 5083 5108 5134 5153 5146 5119 5095 5060 5025 4998 4979 4971 4969 4969 4981 4993 5006 5023 5037 5054 5074 5099 5137 5172 5199 5209 5196 5169 5149 5132 5129 5143 5166 5194 5229 5253 5282 5303 5328 5353 5371 5390 5410 5417 5408 5390 5381 5374 5367 5337 5300 5272 5248 5220 5195 5172 5159 5148 5164 5187 5207 5235 5273 5302 5300 5273 5245 5225 5221 5245 5289 5322 5311 5276 5248 5198 5146 5117 5103 5091 5071 5070 5090 5119 5151 5159 5154 5145 5128 5097 5069 5024 4995 4984 4979 4981 4986 4989
4746 4745 4745 4742 4740 4738 4736 4734 4734 4732 4732 4731 4729 4727 4726 4725 4725 4724 4722 4726 4721 4722 4722 4722 4725 4732 4735 4740 4742 4749 4756 4762 4765 4769 4778 4790 4799 4805 4810 4819 4829 4838 4850 4857 4867 4875 4877 4876 4876 4876 4875 4877 4875 4878 4877 4877 4874 4873 4871 4864 4859 4853 4849 4846 4844 4839 4834 4828 4823 4820 4819 4829 4836 4845 4852 4859 4872 4883 4890 4901 4911 4923 4933 4946 4959 4971 4985 5007 5018 5016 5012 5007 4999 4990 4983 4981 4972 4973 4977 4980 4983 4987 4996 5002 5009 5015 5024 5033 5040 5048 5056 5066 5078 5087 5099 5108 5114 5111 5099 5079 5057 5040 5034 5023 5016 5009 5000 4993 4989 4992 4996 4995 4994 4995 4989 4984 4981 4978 4980 4978 4975 4974 4977 4979 4982 4982 4984 4988 4994 5000 5010 5011 5013 5009 5007 5003 4998 5000 4999 5002 5013 5023 5035 5047 5055 5065 5076 5081 5089 5095 5102 5115 5122 5133 5150 5163 5178 5186 5182 5174 5166 5158 5154 5155 5148 5147 5135 5133 5129 5116 5094 5085 5087 5093 5097 5099 5106 5110 5112 5116 5120 5126 5129 5135 5140 5145 5148 5154 5158 5164 5172 5179 5186 5195 5200 5209 5213 5226 5235 5241 5248 5262 5273 5280 5291 5295 5309 5327 5348 5376 5401 5422 5446 5454 5446 5430 5427 5451 5478 5493 5489 5470 5454 5447 5446 5436 5437 5437 5437 5441 5443 5446 5446 5454 5470 5504 5524 5538 5555 5567 5576 5584 5584 5588 5596 5602 5617 5642 5661 5684 5701 5724 5752 5781 5819 5856 5878 5879 5869 5861 5853 5840 5819 5791 5759 5733 5719 5714 5708 5709 5715 5731 5752 5774 5797 5825 5855 5891 5925 5951 5966 5975 5966 5933 5899 5858 5819 5783 5749 5716 5695 5685 5683 5678 5679 5679 5690 5710 5717 5708 5692 5680 5670 5649 5618 5579 5535 5498 5452 5424 5405 5391 5371 5348 5327 5301 5280 5264 5251 5229 5215 5210 5198 5176 5148 5116 5088 5046 5014 4992 4967 4949 4933 4920 4913 4904 4899 4892 4888 4887 4880 4874 4872 4867 4863 4853 4832 4813 4801 4792 4783 4790 4805 4830 4853 4876 4906 4895 4836 4780 4734 4684 4637 4590 4569 4554 4543 4534 4526 4520 4517 4514 4512 4512 4508 4508 4512 4505 4507 4509 4509 4510 4510 4506 4504 4509 4523 4542 4571 4588 4613 4644 4665 4686 4728 4744 4759 4788 4824 4862 4898 4911 4908 4903 4923 4961 4972 4977 4972 4969 4942 4900 4883 4890 4874 4843 4803 4766 4737 4720 4706 4687 4668 4661 4659 4658 4657 4657 4663 4668 4672 4675 4681 4686 4690 4695 4699 4704 4709 4714 4717 4723 4727 4733 4735 4745 4747 4746 4747 4749 4759 4787 4809 4831 4848 4858 4869 4875 4885 4888 4892 4888 4892 4892 4889 4889 4896 4908 4920 4932 4940 4954 4981 4993 5000 5007 5020 5036 5048 5072 5099 5131 5155 5160 5142 5119 5082 5042 5015 4992 4986 4983 4979 4988 5001 5019 5035 5055 5078 5095 5109 5128 5162 5199 5225 5234 5214 5189 5170 5157 5150 5174 5214 5258 5292 5319 5342 5369 5388 5401 5409 5417 5412 5412 5408 5407 5415 5410 5368 5334 5304 5273 5241 5212 5190 5162 5140 5136 5156 5178 5215 5258 5300 5319 5288 5247 5214 5202 5228 5267 5286 5273 5244 5223 5200 5161 5115 5082 5069 5057 5054 5077 5109 5126 5136 5138 5134 5117 5087 5050 5013 4986 4973 4979 4977 4985 4998
4747 4743 4743 4742 4738 4738 4736 4733 4733 4731 4730 4730 4727 4727 4726 4724 4724 4723 4723 4725 4723 4721 4726 4723 4722 4726 4730 4738 4737 4742 4750 4754 4759 4764 4771 4781 4791 4804 4812 4818 4828 4841 4852 4858 4868 4877 4885 4886 4884 4886 4887 4885 4885 4886 4884 4885 4885 4881 4878 4871 4865 4860 4854 4848 4842 4841 4833 4827 4824 4822 4823 4829 4835 4846 4856 4865 4878 4889 4900 4910 4919 4929 4941 4951 4966 4979 4993 5007 5015 5019 5021 5017 5010 5004 4995 4989 4982 4978 4978 4981 4982 4987 4995 5003 5012 5019 5025 5033 5044 5056 5063 5075 5087 5097 5110 5118 5124 5121 5105 5087 5064 5048 5035 5024 5013 5005 4998 4995 4989 4987 4987 4987 4990 4987 4984 4980 4977 4977 4978 4974 4974 4975 4978 4981 4984 4989 4991 4992 4994 5003 5006 5006 5009 5000 4994 4990 4990 4990 4991 4994 5006 5020 5031 5043 5051 5054 5061 5069 5078 5084 5092 5104 5115 5128 5144 5163 5174 5175 5168 5152 5141 5136 5130 5126 5124 5120 5117 5116 5109 5100 5088 5085 5086 5089 5092 5096 5100 5103 5104 5109 5114 5121 5124 5128 5135 5138 5141 5144 5150 5156 5164 5175 5179 5184 5197 5204 5210 5220 5227 5236 5247 5256 5265 5275 5280 5291 5302 5319 5341 5365 5383 5396 5424 5439 5426 5408 5396 5410 5432 5445 5439 5426 5420 5418 5415 5415 5417 5421 5423 5425 5428 5433 5434 5448 5471 5497 5500 5503 5511 5524 5530 5541 5552 5566 5580 5599 5627 5656 5678 5702 5722 5745 5767 5789 5815 5852 5878 5888 5887 5886 5882 5859 5831 5797 5769 5749 5735 5732 5729 5731 5742 5764 5788 5812 5835 5859 5885 5909 5917 5919 5914 5912 5909 5895 5876 5848 5816 5776 5739 5703 5676 5652 5643 5634 5634 5641 5660 5674 5677 5671 5656 5647 5637 5624 5601 5578 5548 5517 5487 5466 5452 5432 5413 5391 5369 5346 5328 5314 5291 5270 5260 5254 5229 5195 5159 5123 5089 5060 5028 5005 4984 4965 4950 4934 4928 4928 4924 4925 4920 4916 4914 4911 4909 4908 4899 4881 4857 4838 4820 4806 4806 4820 4840 4874 4897 4930 4953 4896 4852 4800 4752 4698 4657 4600 4573 4554 4544 4532 4525 4522 4516 4513 4511 4508 4508 4511 4508 4508 4506 4508 4509 4507 4512 4509 4510 4510 4518 4530 4547 4561 4584 4609 4622 4643 4671 4697 4717 4746 4791 4825 4875 4920 4949 4954 4975 4967 4942 4930 4927 4940 4927 4909 4911 4925 4917 4877 4824 4794 4778 4762 4745 4713 4680 4670 4665 4664 4661 4663 4667 4672 4675 4678 4686 4690 4697 4700 4705 4709 4715 4719 4721 4730 4735 4742 4749 4756 4754 4758 4760 4764 4766 4782 4804 4826 4852 4870 4883 4891 4901 4908 4910 4908 4911 4915 4913 4900 4906 4914 4925 4942 4955 4960 4976 5000 5016 5035 5054 5071 5083 5095 5121 5151 5174 5184 5168 5130 5091 5057 5029 5010 5001 4998 4991 4995 5011 5031 5049 5074 5102 5131 5155 5158 5171 5200 5231 5261 5257 5230 5205 5184 5171 5170 5198 5238 5266 5292 5316 5337 5356 5373 5391 5397 5398 5397 5403 5410 5418 5420 5399 5371 5343 5314 5278 5243 5216 5180 5143 5120 5123 5143 5178 5218 5251 5301 5294 5242 5205 5185 5210 5248 5261 5236 5207 5177 5156 5143 5128 5098 5058 5039 5039 5066 5090 5099 5106 5104 5100 5093 5062 5028 4998 4979 4971 4973 4976 4990 5015
4745 4741 4742 4740 4739 4737 4735 4733 4733 4732 4729 4729 4728 4726 4726 4724 4723 4722 4722 4723 4724 4719 4721 4723 4719 4719 4727 4729 4733 4740 4745 4749 4755 4761 4768 4779 4794 4804 4815 4827 4836 4847 4861 4865 4872 4877 4888 4894 4893 4896 4899 4897 4895 4893 4895 4894 4894 4891 4886 4878 4870 4865 4862 4854 4847 4843 4836 4830 4827 4827 4826 4827 4837 4850 4858 4866 4882 4892 4904 4916 4925 4936 4946 4959 4972 4986 4998 5013 5021 5030 5033 5029 5022 5014 5005 4997 4992 4986 4986 4991 4998 5000 4999 5005 5011 5023 5029 5039 5050 5061 5070 5077 5092 5107 5117 5128 5135 5129 5112 5091 5072 5053 5035 5025 5016 5007 4998 4992 4990 4977 4982 4983 4985 4986 4985 4979 4974 4972 4974 4974 4972 4977 4984 4993 4999 5003 5001 4998 4997 4999 5000 4998 4999 4993 4993 4988 4986 4988 4987 4988 4997 5009 5024 5036 5042 5048 5056 5061 5072 5079 5090 5099 5113 5131 5145 5155 5150 5151 5147 5131 5122 5120 5109 5104 5103 5101 5099 5095 5087 5079 5074 5080 5080 5083 5090 5093 5096 5099 5102 5108 5111 5116 5116 5121 5130 5134 5136 5141 5150 5155 5162 5169 5172 5184 5191 5198 5207 5212 5221 5232 5238 5248 5257 5265 5270 5283 5300 5310 5331 5341 5358 5383 5414 5429 5411 5383 5370 5370 5381 5396 5396 5391 5392 5386 5391 5392 5398 5405 5409 5405 5411 5413 5428 5454 5467 5467 5463 5468 5473 5487 5504 5521 5538 5569 5599 5628 5657 5683 5710 5739 5763 5787 5805 5821 5839 5867 5902 5919 5914 5912 5895 5861 5833 5802 5777 5762 5754 5748 5748 5757 5784 5814 5831 5856 5878 5895 5899 5893 5876 5864 5858 5856 5852 5853 5852 5845 5810 5771 5731 5694 5664 5636 5618 5606 5604 5617 5639 5657 5659 5650 5637 5619 5594 5574 5562 5534 5516 5498 5490 5485 5479 5466 5442 5423 5410 5391 5372 5357 5334 5313 5295 5276 5239 5205 5178 5150 5114 5087 5054 5031 5006 4990 4975 4959 4949 4951 4967 4972 4964 4958 4956 4954 4952 4948 4934 4910 4888 4866 4843 4827 4835 4847 4880 4924 4955 4985 4987 4930 4873 4835 4787 4740 4683 4622 4588 4558 4547 4533 4526 4519 4515 4510 4508 4512 4509 4505 4506 4509 4506 4511 4510 4513 4513 4510 4513 4509 4516 4526 4537 4548 4563 4583 4601 4618 4639 4659 4684 4717 4763 4808 4866 4921 4966 4986 4972 4936 4895 4879 4881 4888 4883 4876 4901 4935 4936 4906 4862 4836 4829 4806 4773 4729 4690 4677 4676 4673 4674 4669 4674 4677 4679 4686 4691 4696 4702 4707 4714 4715 4719 4725 4734 4739 4743 4749 4756 4763 4773 4770 4771 4774 4780 4789 4810 4832 4854 4883 4904 4921 4932 4936 4931 4926 4928 4940 4934 4920 4914 4923 4935 4945 4956 4965 4983 4996 5021 5052 5082 5111 5126 5134 5151 5177 5200 5203 5190 5156 5114 5070 5045 5033 5021 5016 5004 5006 5022 5053 5074 5086 5109 5151 5188 5210 5224 5227 5247 5278 5290 5272 5241 5219 5201 5186 5190 5208 5228 5250 5267 5288 5310 5329 5347 5361 5375 5386 5396 5402 5401 5402 5391 5378 5359 5348 5314 5284 5240 5197 5158 5125 5103 5116 5145 5175 5221 5272 5285 5241 5194 5171 5203 5240 5244 5215 5175 5134 5108 5101 5102 5088 5046 5025 5021 5041 5060 5071 5073 5057 5063 5068 5037 5006 4981 4966 4963 4967 4978 5005 5041
4744 4743 4743 4738 4738 4738 4735 4733 4731 4731 4729 4729 4727 4725 4725 4723 4724 4723 4722 4721 4718 4720 4719 4718 4715 4719 4725 4730 4733 4738 4740 4745 4749 4756 4762 4770 4787 4801 4813 4829 4846 4854 4870 4873 4873 4880 4889 4898 4899 4902 4904 4902 4901 4900 4903 4904 4905 4901 4894 4889 4879 4872 4866 4856 4848 4845 4839 4831 4829 4831 4833 4834 4839 4848 4860 4868 4883 4891 4907 4919 4935 4943 4955 4968 4978 4991 5004 5017 5026 5034 5037 5037 5034 5027 5020 5011 5004 4996 4994 5007 5013 5009 5005 5008 5015 5026 5033 5044 5054 5064 5074 5087 5099 5112 5123 5134 5141 5133 5116 5093 5074 5052 5040 5028 5017 5010 4995 4992 4986 4978 4978 4976 4978 4980 4979 4977 4972 4973 4973 4969 4974 4981 4991 4999 5003 5004 5003 4998 4996 4995 4992 4993 4995 4992 4991 4984 4981 4985 4983 4988 4992 5002 5013 5024 5031 5042 5049 5055 5068 5076 5089 5100 5116 5135 5142 5139 5134 5131 5126 5115 5109 5107 5095 5093 5089 5084 5080 5079 5075 5071 5070 5072 5078 5082 5084 5089 5091 5094 5099 5101 5106 5111 5115 5119 5123 5131 5135 5140 5146 5152 5160 5168 5173 5179 5187 5195 5204 5209 5218 5227 5232 5239 5246 5255 5262 5280 5290 5295 5312 5325 5340 5369 5400 5409 5386 5361 5347 5341 5345 5355 5361 5366 5368 5367 5371 5378 5381 5387 5391 5390 5398 5402 5415 5433 5435 5439 5445 5450 5466 5487 5509 5541 5562 5592 5630 5662 5694 5726 5759 5788 5814 5836 5855 5871 5893 5915 5942 5954 5939 5916 5886 5854 5828 5805 5787 5776 5770 5767 5770 5790 5816 5844 5876 5908 5927 5927 5900 5868 5845 5835 5828 5819 5815 5813 5815 5816 5799 5763 5724 5689 5658 5626 5602 5583 5578 5595 5625 5653 5658 5647 5631 5611 5581 5548 5521 5493 5476 5467 5466 5469 5470 5466 5453 5443 5434 5420 5405 5390 5369 5339 5313 5288 5256 5229 5208 5181 5147 5115 5088 5065 5035 5019 5005 4987 4982 4981 5006 5030 5015 4999 5001 5003 4993 4988 4970 4945 4926 4902 4869 4853 4866 4888 4930 4978 5012 5033 5014 4963 4908 4865 4813 4762 4718 4665 4612 4565 4551 4538 4531 4524 4517 4510 4506 4510 4512 4509 4505 4495 4504 4510 4515 4509 4505 4509 4510 4510 4515 4521 4531 4543 4559 4574 4589 4607 4628 4650 4673 4710 4773 4826 4877 4917 4953 4961 4950 4915 4879 4843 4837 4842 4845 4860 4891 4928 4952 4933 4897 4876 4868 4839 4798 4757 4709 4691 4681 4684 4681 4673 4678 4680 4686 4689 4697 4702 4705 4711 4719 4723 4729 4732 4740 4746 4748 4754 4766 4767 4770 4777 4779 4784 4790 4801 4818 4837 4859 4887 4916 4945 4965 4968 4958 4946 4947 4954 4943 4935 4930 4931 4950 4970 4981 4987 4993 5003 5013 5048 5084 5123 5152 5171 5186 5207 5230 5233 5207 5177 5134 5095 5073 5056 5042 5035 5022 5019 5036 5072 5104 5128 5140 5167 5197 5230 5265 5283 5293 5303 5321 5309 5285 5262 5240 5224 5221 5215 5221 5231 5244 5260 5279 5299 5321 5338 5356 5367 5372 5371 5367 5366 5360 5345 5343 5344 5338 5314 5269 5211 5163 5125 5099 5091 5114 5144 5187 5230 5250 5226 5180 5156 5188 5226 5225 5197 5161 5117 5080 5060 5058 5059 5042 5015 5005 5019 5037 5039 5036 5024 5032 5038 5009 4980 4965 4963 4962 4969 4982 5012 5041
4743 4742 4740 4738 4736 4737 4733 4733 4731 4730 4729 4729 4727 4724 4723 4724 4724 4722 4719 4720 4719 4720 4723 4717 4719 4723 4730 4729 4727 4732 4736 4740 4745 4750 4758 4765 4779 4797 4807 4819 4835 4848 4866 4875 4873 4880 4889 4899 4902 4906 4906 4906 4906 4906 4909 4909 4911 4910 4905 4897 4886 4876 4870 4863 4854 4849 4844 4836 4830 4830 4836 4839 4843 4854 4862 4869 4877 4890 4905 4922 4935 4948 4963 4975 4985 4999 5011 5023 5031 5040 5045 5044 5041 5041 5036 5024 5017 5006 5003 5008 5017 5018 5015 5017 5024 5028 5037 5048 5056 5068 5079 5092 5100 5111 5122 5135 5140 5133 5116 5097 5080 5052 5039 5027 5021 5010 5000 4992 4985 4983 4980 4975 4975 4977 4978 4974 4971 4972 4971 4967 4967 4978 4984 4990 4995 4997 4998 4990 4989 4988 4988 4989 4989 4986 4984 4982 4979 4985 4982 4988 4992 4998 5008 5015 5025 5037 5045 5056 5065 5076 5092 5102 5116 5125 5127 5118 5116 5115 5115 5103 5096 5085 5084 5083 5079 5073 5069 5070 5068 5065 5065 5069 5073 5077 5080 5084 5084 5089 5094 5096 5103 5108 5111 5116 5119 5126 5132 5137 5144 5149 5157 5160 5166 5174 5182 5190 5198 5205 5212 5218 5220 5230 5236 5243 5249 5264 5272 5281 5296 5302 5321 5343 5364 5373 5362 5340 5328 5323 5327 5328 5337 5344 5345 5350 5355 5360 5365 5377 5375 5379 5383 5385 5397 5408 5413 5421 5438 5460 5484 5515 5545 5575 5609 5644 5676 5704 5738 5774 5807 5837 5864 5892 5916 5930 5945 5970 5989 5987 5959 5926 5894 5867 5839 5813 5802 5789 5786 5789 5798 5824 5858 5891 5921 5954 5955 5927 5892 5861 5839 5824 5809 5798 5789 5782 5779 5776 5765 5743 5720 5687 5656 5622 5592 5563 5551 5563 5597 5629 5652 5655 5639 5612 5577 5544 5509 5473 5443 5431 5426 5438 5445 5449 5443 5436 5430 5423 5412 5389 5361 5344 5314 5295 5280 5257 5238 5213 5181 5149 5123 5089 5064 5051 5033 5019 5019 5021 5041 5075 5069 5045 5046 5047 5040 5030 5012 4987 4966 4934 4895 4881 4904 4928 4963 5010 5055 5067 5025 4992 4943 4889 4845 4787 4733 4691 4617 4576 4565 4551 4542 4532 4522 4516 4514 4510 4504 4511 4516 4513 4506 4510 4516 4503 4503 4514 4515 4509 4513 4520 4528 4539 4553 4567 4581 4597 4614 4639 4670 4722 4770 4828 4876 4905 4920 4917 4917 4909 4878 4821 4806 4805 4816 4844 4883 4912 4942 4952 4937 4917 4890 4847 4801 4760 4722 4705 4690 4688 4688 4683 4682 4689 4693 4704 4709 4708 4713 4718 4723 4732 4737 4743 4747 4753 4757 4766 4769 4776 4783 4787 4792 4797 4807 4811 4824 4840 4859 4884 4916 4951 4981 4996 4986 4971 4964 4959 4953 4949 4948 4945 4958 4991 5016 5021 5022 5026 5024 5042 5078 5109 5141 5167 5200 5229 5260 5268 5233 5198 5163 5127 5103 5083 5064 5065 5042 5033 5060 5099 5135 5169 5194 5211 5231 5257 5295 5323 5340 5343 5352 5343 5324 5305 5286 5271 5261 5249 5251 5258 5264 5275 5289 5305 5319 5327 5327 5321 5318 5316 5314 5321 5328 5317 5304 5307 5315 5313 5283 5218 5173 5131 5102 5079 5083 5106 5145 5179 5213 5200 5157 5138 5176 5198 5185 5161 5136 5113 5082 5045 5031 5033 5026 5006 4993 4991 5008 5016 5008 4998 5007 5005 4984 4962 4957 4961 4962 4976 4995 5007 5024
4742 4738 4738 4736 4735 4735 4732 4730 4730 4730 4728 4726 4726 4724 4725 4723 4722 4722 4719 4719 4718 4718 4720 4719 4721 4725 4729 4729 4728 4733 4735 4738 4744 4750 4755 4763 4773 4787 4802 4821 4836 4845 4856 4863 4867 4873 4886 4897 4905 4910 4910 4909 4907 4907 4906 4909 4910 4913 4912 4903 4891 4883 4876 4867 4858 4854 4846 4838 4834 4836 4836 4842 4847 4853 4861 4869 4883 4895 4908 4921 4935 4949 4965 4981 4991 5001 5012 5024 5034 5041 5047 5051 5049 5046 5044 5038 5032 5020 5012 5014 5018 5023 5023 5022 5029 5037 5044 5048 5058 5069 5080 5094 5099 5107 5117 5127 5135 5132 5118 5101 5076 5057 5041 5028 5023 5008 4997 4985 4980 4979 4977 4973 4971 4971 4972 4970 4974 4972 4968 4967 4969 4979 4984 4985 4988 4991 4991 4984 4980 4978 4978 4982 4982 4977 4978 4975 4979 4983 4984 4985 4993 4998 5004 5015 5024 5038 5049 5061 5068 5077 5091 5097 5106 5108 5106 5097 5092 5098 5097 5091 5078 5071 5072 5070 5070 5067 5066 5064 5060 5059 5059 5065 5069 5071 5076 5080 5083 5086 5093 5096 5098 5103 5108 5111 5114 5120 5126 5132 5139 5145 5153 5157 5165 5172 5177 5183 5189 5197 5206 5212 5213 5225 5226 5230 5236 5241 5253 5268 5274 5281 5296 5308 5320 5328 5323 5315 5307 5309 5309 5313 5320 5325 5332 5334 5336 5343 5353 5360 5364 5369 5373 5376 5383 5397 5410 5427 5459 5489 5517 5552 5583 5620 5657 5691 5722 5753 5786 5818 5856 5892 5922 5952 5971 5989 6000 6021 6029 6015 5987 5958 5927 5893 5855 5826 5813 5805 5803 5809 5825 5858 5895 5931 5969 5983 5957 5925 5895 5863 5835 5818 5805 5791 5779 5770 5759 5754 5742 5732 5718 5692 5654 5617 5587 5554 5529 5536 5554 5584 5606 5622 5621 5601 5574 5544 5503 5465 5429 5397 5392 5405 5414 5424 5424 5422 5416 5407 5391 5363 5341 5316 5292 5277 5265 5248 5235 5215 5204 5176 5147 5119 5099 5084 5069 5057 5067 5075 5088 5114 5117 5091 5091 5095 5090 5079 5055 5030 4999 4955 4921 4923 4943 4969 5006 5045 5077 5069 5021 4979 4936 4897 4845 4795 4732 4686 4633 4596 4578 4567 4552 4541 4530 4519 4512 4510 4508 4511 4514 4506 4506 4508 4516 4508 4508 4513 4507 4512 4516 4514 4521 4532 4544 4559 4572 4585 4607 4632 4668 4714 4767 4815 4841 4869 4875 4864 4875 4871 4845 4803 4777 4783 4805 4839 4872 4904 4938 4964 4962 4936 4909 4863 4823 4781 4741 4714 4698 4700 4698 4694 4695 4699 4708 4719 4724 4722 4719 4725 4731 4739 4744 4749 4754 4763 4766 4776 4779 4786 4789 4795 4799 4805 4817 4819 4831 4845 4862 4887 4918 4953 4988 5015 5016 5006 4993 4978 4967 4961 4962 4961 4961 4990 5033 5051 5057 5056 5051 5051 5064 5086 5117 5149 5183 5219 5264 5297 5271 5236 5210 5181 5146 5122 5099 5094 5066 5048 5080 5127 5170 5203 5229 5250 5276 5300 5323 5351 5371 5376 5384 5379 5367 5348 5332 5321 5299 5280 5284 5287 5295 5307 5319 5326 5330 5316 5289 5270 5261 5258 5259 5270 5284 5287 5266 5258 5273 5288 5284 5244 5199 5154 5117 5081 5062 5075 5103 5139 5165 5167 5127 5128 5177 5182 5145 5118 5098 5093 5070 5037 5012 5006 5011 5002 4984 4978 4984 4987 4984 4976 4975 4974 4958 4953 4955 4957 4965 4991 5026 5044 5047
4741 4738 4737 4736 4734 4733 4731 4729 4729 4729 4728 4726 4726 4725 4724 4722 4720 4720 4718 4720 4717 4714 4718 4714 4715 4724 4731 4728 4726 4729 4733 4737 4744 4749 4754 4759 4767 4781 4802 4818 4825 4831 4851 4863 4865 4873 4882 4890 4902 4909 4906 4906 4905 4901 4901 4901 4906 4911 4910 4906 4894 4885 4880 4872 4861 4856 4848 4841 4836 4836 4842 4844 4848 4854 4863 4871 4885 4894 4907 4923 4936 4951 4964 4979 4990 5004 5018 5028 5036 5044 5052 5056 5058 5055 5053 5047 5040 5034 5024 5019 5023 5027 5029 5031 5034 5037 5048 5054 5059 5069 5080 5089 5098 5106 5112 5120 5125 5126 5116 5099 5071 5058 5042 5031 5023 5010 4998 4989 4984 4976 4975 4975 4971 4971 4971 4969 4970 4969 4969 4967 4971 4982 4990 4991 4991 4991 4988 4988 4981 4980 4976 4976 4977 4977 4976 4978 4980 4979 4978 4982 4990 4997 5006 5016 5029 5042 5057 5066 5072 5072 5080 5084 5089 5088 5086 5082 5081 5083 5075 5071 5060 5062 5064 5064 5061 5058 5058 5055 5057 5056 5059 5063 5065 5071 5073 5077 5079 5082 5088 5093 5097 5101 5106 5111 5116 5120 5123 5130 5136 5140 5147 5153 5159 5166 5171 5176 5184 5187 5196 5203 5207 5216 5218 5220 5223 5224 5238 5246 5253 5263 5270 5277 5286 5290 5293 5290 5285 5288 5294 5299 5304 5312 5318 5319 5326 5333 5339 5346 5350 5358 5366 5369 5384 5404 5429 5453 5487 5518 5545 5582 5618 5659 5697 5736 5770 5803 5832 5865 5906 5946 5967 5971 5966 5970 5975 5995 6014 6030 6024 5998 5960 5917 5879 5845 5829 5822 5824 5833 5856 5884 5920 5960 5989 5987 5960 5926 5892 5863 5837 5816 5801 5787 5774 5759 5748 5739 5731 5724 5716 5686 5651 5611 5574 5539 5511 5499 5516 5539 5556 5572 5577 5566 5549 5518 5487 5453 5417 5382 5360 5365 5378 5391 5394 5391 5383 5372 5357 5339 5310 5285 5268 5248 5241 5223 5202 5185 5183 5177 5170 5149 5137 5125 5105 5106 5123 5131 5138 5158 5162 5137 5140 5145 5142 5127 5099 5072 5029 4980 4953 4960 4984 5018 5054 5091 5089 5047 4999 4952 4908 4873 4819 4765 4715 4677 4637 4612 4591 4577 4563 4547 4533 4521 4514 4509 4510 4505 4508 4512 4509 4507 4510 4512 4510 4513 4512 4511 4508 4510 4517 4525 4536 4548 4560 4587 4626 4647 4674 4717 4753 4768 4794 4820 4823 4812 4821 4827 4815 4775 4751 4764 4796 4834 4871 4902 4930 4959 4970 4955 4920 4878 4840 4797 4760 4731 4708 4713 4711 4710 4708 4715 4734 4752 4758 4748 4736 4732 4739 4743 4751 4759 4766 4769 4774 4781 4787 4794 4798 4800 4809 4814 4823 4831 4846 4854 4861 4885 4917 4947 4978 5005 5030 5029 5017 5002 4989 4985 4980 4981 4978 4984 5020 5061 5088 5095 5085 5086 5089 5093 5107 5130 5165 5204 5248 5293 5308 5279 5247 5226 5193 5192 5152 5117 5087 5062 5087 5138 5178 5215 5234 5259 5286 5311 5333 5354 5375 5389 5403 5414 5409 5392 5378 5360 5335 5318 5322 5326 5335 5342 5352 5356 5341 5309 5265 5233 5210 5202 5209 5220 5236 5249 5250 5219 5228 5245 5260 5266 5244 5190 5137 5099 5062 5046 5066 5100 5132 5138 5107 5132 5166 5167 5108 5072 5056 5053 5041 5023 4998 4986 4998 4994 4975 4965 4964 4966 4969 4961 4957 4953 4945 4949 4951 4956 4977 5016 5048 5074 5083
4738 4738 4736 4735 4734 4733 4731 4728 4727 4727 4725 4725 4725 4723 4722 4722 4721 4719 4718 4718 4715 4715 4716 4715 4717 4720 4727 4729 4728 4729 4733 4737 4741 4746 4753 4758 4768 4775 4792 4803 4811 4829 4850 4867 4878 4876 4882 4886 4892 4900 4900 4901 4899 4895 4893 4894 4901 4901 4900 4897 4890 4881 4876 4870 4863 4858 4851 4846 4840 4839 4842 4845 4848 4853 4865 4871 4883 4897 4910 4922 4935 4952 4971 4983 4992 5005 5016 5027 5037 5047 5054 5059 5063 5062 5060 5052 5045 5041 5030 5030 5030 5033 5034 5036 5037 5041 5044 5049 5056 5067 5080 5088 5095 5100 5108 5116 5119 5118 5108 5092 5074 5060 5044 5029 5026 5012 5002 4997 4987 4980 4977 4975 4971 4968 4971 4972 4970 4967 4968 4974 4979 4985 4991 4991 4994 4991 4985 4982 4978 4978 4968 4971 4973 4975 4972 4974 4982 4982 4981 4983 4989 4992 5005 5019 5032 5043 5056 5065 5066 5065 5067 5072 5065 5069 5069 5064 5064 5061 5054 5048 5046 5053 5053 5052 5051 5050 5051 5050 5050 5052 5060 5063 5062 5067 5071 5076 5079 5081 5087 5091 5092 5097 5101 5105 5111 5115 5121 5126 5133 5138 5144 5150 5157 5161 5164 5171 5177 5184 5186 5196 5203 5204 5209 5210 5212 5216 5225 5229 5237 5241 5246 5251 5259 5263 5268 5272 5272 5279 5279 5287 5293 5298 5301 5305 5318 5326 5331 5336 5342 5348 5358 5372 5399 5428 5459 5478 5510 5551 5582 5611 5645 5684 5725 5771 5817 5851 5887 5918 5950 5957 5937 5916 5905 5905 5910 5928 5948 5983 6014 6014 5975 5939 5901 5871 5854 5845 5847 5859 5878 5911 5945 5977 5998 5984 5952 5915 5880 5856 5837 5821 5803 5784 5771 5749 5734 5718 5712 5701 5698 5677 5644 5601 5560 5522 5490 5467 5478 5496 5510 5520 5521 5519 5506 5486 5459 5429 5395 5364 5336 5324 5340 5353 5353 5353 5344 5329 5314 5302 5280 5259 5234 5215 5200 5185 5166 5156 5150 5155 5155 5156 5159 5156 5140 5147 5170 5185 5191 5205 5200 5182 5191 5193 5189 5166 5128 5098 5056 5011 5006 5010 5035 5069 5103 5121 5091 5051 4989 4926 4878 4829 4796 4760 4702 4665 4641 4616 4594 4572 4559 4545 4531 4522 4515 4510 4505 4508 4510 4508 4509 4511 4511 4511 4510 4513 4512 4513 4508 4510 4517 4522 4529 4535 4558 4599 4636 4654 4672 4697 4707 4721 4747 4769 4772 4759 4765 4774 4769 4743 4729 4754 4783 4820 4856 4886 4909 4930 4942 4940 4923 4885 4838 4811 4780 4743 4721 4724 4728 4729 4727 4740 4761 4792 4803 4787 4761 4746 4750 4754 4756 4760 4771 4777 4783 4788 4796 4803 4808 4813 4817 4825 4834 4844 4853 4863 4871 4883 4909 4940 4972 5003 5030 5043 5038 5030 5019 5007 5002 5000 4999 4991 5001 5034 5080 5117 5123 5127 5130 5137 5138 5140 5160 5195 5236 5283 5323 5321 5284 5252 5236 5223 5200 5155 5110 5079 5085 5118 5153 5175 5206 5229 5253 5284 5318 5333 5354 5374 5401 5425 5438 5430 5414 5391 5369 5362 5367 5367 5370 5374 5382 5378 5355 5312 5265 5233 5189 5162 5158 5171 5184 5206 5225 5199 5180 5205 5223 5249 5254 5216 5158 5121 5083 5038 5033 5063 5102 5112 5086 5097 5136 5141 5099 5059 5027 5014 5005 5003 4983 4972 4979 4975 4960 4953 4951 4950 4947 4945 4943 4942 4943 4946 4947 4955 4976 5005 5032 5054 5068
4739 4737 4735 4735 4733 4730 4731 4728 4728 4726 4725 4724 4724 4722 4720 4721 4720 4719 4718 4716 4717 4717 4714 4714 4717 4720 4727 4727 4727 4728 4729 4734 4738 4746 4753 4759 4767 4775 4787 4806 4817 4831 4847 4866 4879 4883 4886 4885 4889 4892 4893 4891 4891 4889 4888 4891 4895 4895 4892 4888 4885 4878 4875 4866 4863 4858 4853 4847 4839 4840 4845 4844 4848 4855 4866 4870 4879 4892 4907 4925 4938 4955 4972 4984 4994 5007 5017 5024 5035 5044 5054 5060 5066 5067 5066 5057 5048 5042 5039 5038 5036 5035 5037 5039 5040 5044 5047 5051 5061 5074 5091 5100 5096 5097 5103 5107 5112 5111 5102 5090 5074 5054 5042 5031 5024 5012 5002 4994 4985 4979 4980 4972 4967 4968 4968 4968 4969 4966 4968 4975 4984 4985 4988 4988 4993 4988 4982 4981 4978 4974 4971 4969 4971 4970 4969 4977 4978 4981 4981 4986 4990 4992 5004 5016 5030 5043 5053 5060 5058 5051 5054 5055 5053 5056 5052 5047 5048 5047 5045 5042 5039 5046 5046 5044 5047 5042 5042 5046 5048 5050 5055 5059 5061 5063 5067 5071 5074 5076 5083 5087 5091 5096 5098 5102 5107 5112 5117 5122 5128 5131 5138 5145 5151 5155 5159 5166 5171 5177 5184 5187 5196 5196 5199 5201 5207 5210 5214 5218 5220 5222 5229 5236 5240 5243 5252 5260 5263 5265 5273 5280 5284 5289 5291 5297 5306 5316 5323 5321 5332 5337 5350 5376 5414 5450 5484 5512 5540 5581 5620 5653 5676 5709 5749 5793 5842 5889 5931 5955 5943 5912 5884 5856 5841 5842 5849 5872 5896 5930 5964 5996 5990 5952 5922 5899 5887 5880 5881 5893 5910 5940 5972 6006 6002 5964 5933 5901 5878 5861 5847 5831 5813 5790 5765 5739 5719 5697 5678 5671 5666 5653 5626 5587 5549 5509 5478 5450 5436 5449 5461 5471 5474 5469 5462 5446 5423 5400 5371 5342 5311 5290 5299 5306 5313 5316 5305 5284 5274 5261 5243 5223 5200 5182 5162 5149 5135 5126 5120 5119 5127 5134 5143 5145 5147 5165 5191 5215 5230 5247 5235 5219 5218 5213 5206 5177 5137 5103 5071 5063 5067 5067 5081 5111 5145 5142 5087 5040 4987 4933 4884 4831 4797 4759 4724 4672 4631 4606 4588 4570 4555 4541 4529 4520 4514 4513 4518 4510 4513 4511 4516 4516 4516 4509 4513 4512 4507 4508 4512 4513 4509 4516 4520 4527 4549 4580 4602 4613 4632 4651 4661 4686 4708 4726 4730 4718 4724 4736 4741 4713 4711 4739 4768 4799 4827 4856 4881 4892 4901 4905 4898 4881 4848 4820 4788 4763 4744 4742 4745 4748 4751 4759 4782 4823 4838 4816 4786 4766 4766 4766 4766 4770 4778 4782 4792 4796 4804 4812 4817 4823 4828 4836 4841 4855 4864 4874 4887 4895 4909 4938 4970 5005 5030 5052 5064 5069 5054 5035 5022 5019 5015 5010 5010 5016 5056 5114 5146 5166 5177 5185 5187 5185 5192 5213 5243 5291 5337 5348 5313 5275 5252 5245 5219 5170 5124 5100 5111 5121 5129 5147 5167 5196 5228 5255 5283 5301 5323 5353 5386 5423 5446 5449 5438 5422 5408 5398 5398 5396 5392 5389 5388 5381 5361 5322 5277 5245 5202 5160 5126 5124 5136 5160 5189 5188 5156 5159 5181 5212 5235 5216 5157 5124 5092 5048 5015 5030 5069 5087 5067 5068 5113 5120 5094 5062 5030 4998 4980 4977 4967 4959 4956 4958 4948 4943 4942 4942 4935 4937 4939 4939 4941 4948 4947 4950 4964 4981 5001 5020 5045
4737 4736 4734 4733 4731 4729 4731 4730 4726 4724 4724 4723 4723 4721 4722 4720 4719 4719 4717 4718 4718 4714 4715 4714 4719 4718 4725 4724 4729 4728 4727 4731 4737 4743 4747 4753 4761 4769 4776 4799 4816 4832 4839 4852 4873 4884 4886 4886 4886 4886 4885 4884 4883 4877 4876 4882 4888 4889 4888 4882 4877 4873 4868 4863 4859 4857 4850 4846 4835 4835 4840 4842 4850 4856 4865 4871 4880 4890 4907 4922 4936 4953 4964 4977 4989 5002 5016 5023 5034 5043 5053 5063 5069 5071 5068 5062 5055 5050 5043 5037 5035 5034 5039 5042 5045 5046 5054 5059 5066 5077 5092 5102 5106 5102 5106 5108 5114 5113 5106 5091 5078 5057 5044 5033 5024 5010 4999 4995 4990 4983 4979 4973 4968 4966 4970 4967 4966 4968 4972 4978 4984 4984 4988 4987 4985 4983 4975 4976 4978 4971 4971 4969 4970 4971 4975 4982 4986 4988 4992 4994 4996 4999 5006 5019 5030 5041 5048 5047 5043 5044 5042 5038 5038 5037 5038 5040 5039 5038 5037 5034 5032 5035 5034 5034 5039 5041 5042 5047 5046 5051 5052 5055 5058 5062 5066 5069 5074 5074 5076 5080 5082 5090 5096 5100 5105 5108 5112 5120 5125 5126 5132 5137 5142 5150 5156 5161 5165 5170 5174 5176 5186 5191 5192 5190 5195 5197 5204 5206 5205 5209 5213 5222 5225 5233 5237 5246 5251 5254 5260 5268 5275 5281 5288 5294 5300 5307 5309 5313 5327 5336 5353 5388 5429 5471 5514 5546 5570 5602 5640 5682 5720 5751 5778 5815 5868 5913 5951 5946 5912 5876 5836 5815 5798 5789 5799 5824 5851 5890 5931 5968 5994 5978 5950 5931 5923 5922 5925 5934 5951 5976 6007 6022 5990 5952 5918 5901 5887 5872 5862 5850 5828 5803 5771 5738 5712 5680 5654 5633 5630 5625 5611 5576 5539 5504 5469 5439 5416 5413 5417 5423 5421 5422 5413 5402 5385 5366 5339 5311 5286 5259 5258 5269 5269 5266 5258 5243 5228 5215 5202 5184 5162 5142 5128 5117 5107 5101 5098 5094 5094 5101 5104 5109 5124 5148 5174 5199 5224 5238 5218 5204 5195 5182 5181 5177 5161 5141 5121 5124 5130 5130 5138 5162 5183 5156 5108 5048 4997 4968 4923 4892 4842 4796 4762 4710 4649 4606 4588 4565 4552 4539 4527 4517 4515 4515 4508 4514 4513 4513 4513 4508 4516 4506 4512 4516 4510 4514 4514 4507 4503 4512 4510 4519 4536 4555 4568 4582 4597 4611 4631 4651 4672 4690 4692 4686 4698 4724 4720 4697 4694 4715 4747 4775 4800 4829 4841 4848 4860 4864 4863 4870 4867 4849 4822 4793 4767 4767 4767 4770 4779 4788 4811 4844 4859 4837 4808 4787 4783 4780 4780 4781 4787 4791 4797 4807 4812 4819 4826 4833 4838 4847 4851 4866 4875 4883 4899 4910 4919 4934 4959 4990 5021 5051 5083 5102 5092 5068 5050 5039 5034 5028 5031 5026 5038 5084 5114 5150 5185 5211 5227 5237 5240 5268 5298 5324 5351 5335 5296 5266 5246 5231 5208 5155 5122 5123 5155 5169 5172 5176 5181 5191 5206 5226 5248 5269 5306 5339 5376 5411 5441 5456 5450 5434 5412 5396 5385 5379 5368 5357 5351 5353 5334 5301 5257 5226 5196 5162 5123 5089 5091 5116 5143 5162 5143 5121 5145 5182 5203 5191 5152 5118 5078 5043 5012 5003 5024 5038 5036 5051 5085 5096 5072 5048 5022 4992 4968 4957 4955 4942 4941 4940 4936 4936 4934 4933 4932 4936 4940 4945 4954 4959 4959 4958 4961 4969 4985 5002 5027
4736 4736 4733 4731 4730 4729 4729 4729 4727 4724 4722 4721 4722 4719 4719 4718 4719 4718 4717 4718 4714 4716 4713 4714 4718 4716 4725 4722 4726 4729 4727 4730 4733 4740 4742 4748 4753 4760 4771 4789 4805 4816 4826 4849 4866 4881 4884 4883 4881 4877 4874 4875 4875 4872 4871 4875 4880 4881 4882 4877 4874 4868 4863 4861 4857 4854 4847 4846 4841 4837 4839 4840 4850 4854 4862 4872 4880 4887 4905 4916 4930 4945 4959 4971 4984 4994 5010 5019 5030 5038 5048 5059 5064 5070 5069 5066 5060 5052 5047 5046 5042 5036 5037 5047 5049 5054 5056 5064 5070 5082 5098 5107 5110 5109 5114 5119 5123 5121 5113 5095 5081 5068 5050 5033 5026 5019 5004 4997 4990 4983 4977 4974 4972 4967 4967 4963 4967 4969 4976 4980 4985 4988 4989 4987 4982 4977 4970 4971 4972 4969 4972 4975 4976 4975 4980 4989 4996 4997 5000 5001 5004 5006 5010 5016 5027 5029 5032 5033 5029 5029 5029 5028 5026 5026 5025 5028 5028 5030 5028 5033 5037 5032 5036 5036 5039 5040 5038 5041 5043 5050 5050 5054 5056 5058 5061 5065 5070 5074 5074 5083 5084 5089 5090 5095 5099 5105 5113 5118 5117 5122 5130 5134 5139 5146 5150 5150 5155 5162 5167 5172 5175 5177 5183 5179 5183 5186 5193 5195 5195 5196 5205 5212 5219 5225 5229 5236 5243 5247 5253 5256 5266 5274 5281 5286 5292 5301 5306 5313 5322 5344 5373 5407 5449 5495 5539 5576 5610 5632 5655 5690 5736 5781 5818 5856 5896 5940 5960 5936 5887 5848 5809 5793 5783 5767 5769 5793 5825 5864 5913 5951 5986 5995 5983 5973 5970 5968 5977 5986 6003 6021 6041 6024 5984 5951 5926 5908 5896 5885 5876 5866 5844 5811 5780 5745 5712 5675 5642 5608 5588 5586 5587 5565 5532 5499 5463 5430 5397 5375 5375 5375 5374 5374 5369 5358 5342 5325 5305 5277 5253 5233 5224 5227 5226 5224 5208 5197 5180 5166 5154 5141 5121 5109 5100 5093 5088 5081 5076 5070 5071 5073 5075 5082 5095 5119 5142 5164 5189 5198 5178 5159 5153 5146 5142 5146 5160 5177 5177 5181 5193 5192 5197 5212 5216 5176 5124 5059 5008 4968 4933 4895 4870 4839 4779 4727 4676 4633 4589 4555 4546 4536 4522 4518 4514 4513 4508 4511 4511 4514 4512 4509 4512 4513 4512 4520 4514 4511 4516 4514 4510 4505 4505 4512 4519 4532 4548 4560 4574 4586 4601 4621 4640 4657 4656 4656 4681 4700 4691 4676 4678 4693 4722 4745 4775 4791 4807 4808 4810 4817 4829 4855 4882 4878 4845 4810 4794 4793 4789 4792 4810 4828 4844 4873 4880 4856 4827 4809 4806 4799 4796 4796 4799 4804 4807 4814 4820 4828 4833 4840 4849 4858 4862 4871 4881 4893 4909 4924 4935 4946 4960 4990 5023 5050 5086 5120 5125 5103 5082 5065 5053 5049 5049 5050 5045 5066 5098 5128 5164 5211 5253 5289 5312 5332 5358 5365 5347 5309 5278 5250 5219 5196 5178 5143 5142 5153 5176 5211 5226 5224 5220 5225 5239 5247 5264 5283 5301 5327 5367 5400 5429 5442 5441 5419 5391 5363 5339 5333 5321 5309 5308 5319 5315 5281 5232 5193 5163 5140 5113 5083 5067 5072 5095 5124 5121 5095 5110 5144 5175 5177 5144 5104 5073 5043 5017 4993 4994 5009 5017 5036 5061 5077 5062 5030 5000 4978 4956 4941 4937 4935 4931 4927 4925 4927 4929 4929 4934 4946 4960 4963 4982 4990 4989 4975 4971 4974 4979 4989 5004
4735 4735 4734 4731 4730 4728 4728 4726 4724 4723 4721 4720 4720 4720 4719 4717 4717 4717 4717 4716 4714 4716 4719 4716 4715 4717 4723 4729 4728 4728 4728 4732 4732 4738 4741 4742 4747 4754 4764 4775 4789 4810 4828 4842 4852 4865 4876 4880 4874 4869 4870 4866 4864 4864 4864 4868 4873 4877 4877 4869 4862 4863 4861 4856 4853 4848 4846 4843 4840 4838 4842 4843 4847 4852 4863 4870 4879 4885 4899 4910 4926 4941 4952 4961 4966 4978 4993 5012 5027 5035 5045 5055 5062 5065 5068 5067 5062 5055 5051 5048 5041 5037 5039 5046 5055 5058 5062 5067 5077 5091 5109 5116 5111 5114 5120 5128 5132 5127 5115 5099 5083 5064 5050 5040 5029 5015 5005 4996 4993 4985 4979 4976 4974 4968 4967 4963 4963 4967 4976 4980 4985 4990 4989 4980 4975 4972 4968 4969 4969 4969 4967 4970 4975 4981 4988 4992 4998 5000 5005 5006 5007 5009 5015 5017 5018 5022 5022 5021 5023 5020 5021 5023 5025 5022 5026 5026 5025 5030 5029 5031 5031 5033 5034 5033 5036 5039 5040 5042 5046 5047 5049 5050 5056 5057 5057 5058 5067 5069 5071 5077 5078 5085 5088 5092 5099 5103 5107 5114 5117 5121 5126 5128 5135 5140 5140 5145 5153 5156 5159 5163 5166 5174 5173 5172 5178 5180 5182 5187 5184 5190 5198 5202 5211 5213 5217 5225 5228 5236 5246 5254 5262 5267 5276 5282 5288 5298 5306 5319 5338 5366 5393 5430 5473 5516 5564 5608 5648 5679 5694 5715 5750 5793 5844 5894 5941 5974 5974 5932 5878 5831 5800 5778 5769 5758 5759 5773 5803 5847 5888 5931 5974 6006 6019 6020 6025 6032 6037 6045 6057 6064 6056 6029 5997 5966 5938 5920 5909 5900 5894 5881 5852 5816 5783 5748 5709 5670 5633 5598 5564 5545 5546 5542 5520 5484 5453 5419 5388 5366 5347 5335 5324 5321 5317 5311 5302 5287 5271 5243 5221 5200 5191 5186 5182 5175 5165 5152 5140 5127 5116 5107 5093 5084 5079 5075 5062 5056 5052 5047 5044 5046 5048 5056 5068 5085 5106 5127 5147 5154 5136 5122 5110 5104 5100 5110 5135 5162 5188 5221 5243 5252 5246 5235 5208 5158 5118 5034 4988 4939 4901 4877 4869 4853 4802 4727 4678 4624 4578 4551 4542 4533 4524 4517 4515 4517 4517 4510 4509 4509 4506 4511 4515 4513 4515 4514 4513 4515 4514 4513 4509 4503 4509 4511 4516 4526 4534 4546 4557 4568 4578 4598 4611 4622 4629 4637 4663 4679 4665 4654 4658 4672 4697 4718 4742 4755 4760 4760 4765 4786 4813 4849 4883 4891 4864 4839 4834 4828 4817 4819 4834 4867 4894 4909 4901 4872 4845 4833 4828 4819 4813 4815 4817 4820 4817 4822 4831 4837 4844 4850 4857 4863 4872 4881 4890 4904 4921 4937 4949 4964 4972 4990 5018 5059 5091 5126 5145 5140 5123 5104 5088 5075 5068 5066 5064 5070 5109 5150 5192 5233 5288 5345 5354 5367 5387 5376 5339 5299 5263 5238 5206 5180 5167 5162 5185 5200 5206 5231 5261 5265 5261 5263 5272 5285 5297 5314 5323 5342 5374 5402 5416 5419 5411 5388 5364 5327 5291 5275 5267 5251 5259 5286 5304 5283 5240 5192 5158 5130 5110 5082 5057 5039 5052 5082 5091 5066 5077 5108 5143 5159 5134 5107 5082 5048 5009 4983 4980 4989 5002 5011 5030 5061 5059 5025 4985 4958 4941 4930 4925 4920 4918 4919 4924 4926 4930 4938 4952 4976 4993 4994 5010 5025 5014 4993 4983 4982 4984 4993 5002
4732 4731 4732 4730 4729 4728 4726 4725 4725 4723 4721 4719 4719 4722 4717 4717 4717 4715 4715 4716 4715 4714 4719 4716 4715 4714 4715 4723 4726 4729 4727 4725 4729 4731 4736 4740 4744 4752 4760 4767 4778 4798 4814 4827 4835 4845 4857 4863 4863 4861 4860 4860 4857 4855 4858 4862 4867 4873 4871 4865 4859 4857 4858 4851 4846 4845 4843 4840 4839 4840 4841 4846 4852 4858 4863 4869 4877 4884 4892 4903 4918 4925 4931 4943 4966 4984 4996 5007 5017 5032 5039 5052 5060 5064 5067 5065 5065 5057 5052 5051 5043 5044 5050 5054 5058 5063 5068 5076 5083 5095 5110 5122 5124 5124 5130 5136 5139 5130 5119 5107 5093 5072 5056 5044 5032 5019 5009 5000 4997 4993 4984 4977 4973 4970 4968 4964 4965 4972 4974 4978 4980 4982 4981 4974 4970 4968 4965 4969 4970 4972 4969 4971 4976 4982 4988 4993 4999 5003 5005 5010 5008 5011 5013 5015 5013 5012 5013 5014 5016 5015 5014 5013 5016 5018 5022 5023 5024 5026 5026 5029 5028 5028 5031 5031 5036 5038 5040 5041 5046 5047 5049 5051 5053 5055 5057 5056 5063 5068 5071 5074 5077 5080 5087 5090 5094 5099 5105 5111 5115 5118 5123 5126 5131 5135 5136 5144 5150 5152 5155 5157 5157 5162 5163 5168 5171 5170 5173 5177 5181 5186 5193 5198 5202 5211 5218 5224 5232 5240 5246 5255 5263 5268 5274 5286 5295 5304 5313 5324 5343 5369 5414 5455 5494 5540 5585 5631 5673 5722 5754 5771 5781 5809 5855 5911 5960 5993 5980 5933 5880 5833 5798 5773 5760 5753 5755 5764 5782 5818 5859 5903 5952 5997 6039 6063 6073 6086 6095 6102 6106 6097 6074 6041 6008 5979 5958 5942 5931 5927 5924 5906 5868 5827 5790 5747 5709 5671 5630 5593 5552 5525 5508 5508 5498 5469 5441 5408 5387 5361 5342 5321 5300 5287 5276 5262 5252 5243 5226 5204 5192 5177 5167 5158 5150 5138 5129 5119 5109 5101 5095 5085 5077 5069 5060 5054 5047 5042 5037 5030 5026 5024 5026 5029 5037 5054 5072 5089 5106 5111 5094 5080 5071 5064 5060 5070 5101 5137 5178 5219 5254 5262 5235 5209 5185 5158 5119 5061 5001 4933 4885 4846 4821 4816 4782 4734 4674 4609 4572 4555 4547 4535 4526 4520 4515 4511 4512 4510 4509 4511 4511 4512 4515 4515 4514 4509 4509 4514 4511 4513 4512 4507 4511 4508 4515 4519 4527 4534 4543 4553 4562 4577 4591 4600 4608 4617 4639 4649 4640 4638 4645 4652 4671 4692 4708 4712 4713 4720 4739 4766 4809 4844 4878 4897 4886 4877 4875 4860 4850 4853 4875 4901 4927 4946 4925 4895 4869 4858 4852 4840 4836 4837 4839 4838 4835 4837 4840 4847 4852 4860 4868 4874 4881 4888 4898 4912 4932 4948 4963 4977 4987 5007 5027 5061 5100 5134 5164 5180 5171 5147 5124 5109 5095 5087 5084 5079 5113 5157 5200 5256 5316 5370 5396 5404 5409 5389 5361 5312 5274 5243 5217 5201 5201 5192 5207 5227 5247 5264 5290 5300 5302 5299 5299 5295 5292 5298 5309 5337 5375 5397 5392 5377 5364 5348 5328 5301 5265 5230 5211 5203 5225 5262 5290 5273 5239 5208 5177 5156 5127 5095 5064 5034 5022 5041 5061 5042 5050 5076 5116 5137 5122 5101 5068 5037 5003 4974 4971 4976 4988 4992 5011 5044 5053 5026 4984 4955 4931 4924 4915 4914 4918 4921 4928 4934 4939 4958 4985 5007 5028 5037 5044 5052 5031 5014 5004 4999 5000 5012 5019
4732 4731 4728 4727 4727 4726 4724 4722 4723 4722 4720 4718 4719 4719 4720 4718 4716 4715 4714 4714 4716 4712 4715 4713 4717 4714 4713 4720 4731 4731 4727 4729 4731 4728 4731 4735 4742 4747 4752 4758 4770 4784 4803 4812 4823 4837 4844 4849 4850 4850 4849 4850 4850 4848 4851 4857 4862 4866 4863 4858 4856 4852 4850 4848 4843 4843 4839 4837 4839 4840 4842 4844 4850 4859 4864 4869 4873 4877 4884 4893 4907 4918 4930 4952 4981 5001 5004 5012 5019 5031 5041 5048 5057 5064 5065 5065 5064 5059 5053 5051 5047 5048 5054 5060 5063 5067 5075 5083 5088 5094 5114 5125 5128 5134 5136 5140 5139 5129 5116 5106 5094 5069 5056 5047 5032 5021 5014 5007 4997 4992 4982 4978 4977 4973 4969 4969 4966 4969 4972 4976 4974 4975 4972 4969 4965 4964 4971 4973 4976 4974 4978 4977 4978 4982 4987 4991 5003 5008 5009 5012 5013 5013 5011 5007 5008 5007 5008 5005 5008 5011 5010 5014 5016 5016 5018 5021 5023 5024 5024 5026 5029 5030 5034 5034 5036 5038 5040 5043 5045 5048 5047 5052 5054 5055 5058 5060 5064 5065 5069 5072 5077 5080 5083 5087 5091 5097 5101 5106 5110 5113 5117 5122 5125 5129 5133 5138 5139 5144 5147 5150 5150 5153 5159 5159 5162 5165 5166 5172 5180 5183 5188 5192 5204 5213 5222 5227 5234 5244 5250 5258 5266 5274 5280 5290 5299 5309 5321 5328 5348 5377 5422 5469 5512 5561 5604 5650 5701 5746 5793 5823 5839 5855 5880 5923 5973 6004 5986 5941 5892 5846 5805 5772 5759 5753 5753 5756 5763 5799 5836 5880 5927 5979 6028 6058 6069 6087 6100 6117 6124 6111 6086 6055 6027 6004 5989 5974 5963 5954 5943 5913 5871 5831 5787 5748 5710 5668 5629 5593 5551 5523 5497 5481 5470 5453 5428 5404 5386 5368 5352 5332 5306 5280 5255 5237 5221 5207 5187 5173 5161 5151 5144 5135 5123 5114 5102 5096 5086 5084 5075 5066 5058 5051 5042 5037 5029 5023 5015 5011 5009 5008 5006 5010 5018 5027 5041 5055 5065 5066 5059 5045 5028 5021 5023 5045 5080 5120 5164 5203 5227 5218 5193 5162 5140 5124 5108 5084 5027 4966 4916 4863 4818 4769 4747 4729 4678 4614 4580 4570 4555 4542 4533 4523 4517 4512 4515 4510 4513 4512 4516 4510 4513 4515 4513 4514 4514 4516 4513 4520 4511 4510 4510 4505 4514 4517 4521 4529 4534 4542 4549 4562 4577 4585 4589 4595 4612 4618 4623 4626 4630 4636 4646 4658 4667 4681 4692 4712 4734 4759 4801 4838 4877 4901 4916 4918 4906 4889 4886 4899 4918 4935 4961 4980 4952 4918 4896 4883 4872 4868 4865 4863 4862 4860 4853 4853 4856 4860 4864 4869 4876 4884 4892 4901 4906 4919 4939 4958 4976 4996 5011 5028 5049 5072 5104 5139 5180 5210 5208 5187 5164 5147 5124 5112 5099 5097 5116 5165 5205 5256 5315 5360 5391 5398 5394 5387 5377 5345 5309 5279 5250 5238 5238 5231 5231 5245 5272 5300 5324 5334 5330 5308 5284 5265 5253 5252 5273 5310 5338 5350 5350 5331 5309 5297 5278 5261 5245 5203 5172 5167 5206 5245 5268 5248 5211 5186 5160 5147 5124 5091 5055 5027 5006 5010 5022 5016 5031 5059 5103 5122 5107 5084 5053 5027 4997 4969 4958 4964 4971 4981 5008 5037 5048 5024 4984 4943 4918 4914 4913 4915 4917 4922 4931 4941 4947 4960 4983 5006 5032 5056 5070 5066 5048 5034 5024 5015 5015 5027 5043
4731 4728 4726 4726 4725 4726 4724 4723 4722 4721 4720 4718 4718 4717 4716 4715 4718 4714 4716 4714 4712 4715 4709 4712 4714 4714 4709 4719 4730 4728 4726 4727 4732 4729 4728 4733 4736 4741 4746 4750 4759 4775 4787 4798 4818 4827 4834 4840 4841 4839 4839 4840 4840 4840 4841 4853 4858 4859 4856 4852 4850 4847 4845 4841 4840 4841 4838 4831 4836 4841 4844 4847 4852 4858 4860 4863 4869 4874 4887 4904 4920 4940 4954 4972 4998 5016 5018 5023 5035 5041 5046 5052 5055 5064 5066 5066 5063 5062 5058 5054 5053 5050 5053 5062 5069 5073 5080 5086 5091 5101 5115 5124 5131 5140 5144 5144 5138 5127 5114 5100 5087 5074 5055 5043 5029 5022 5014 5010 5004 4994 4984 4982 4973 4971 4968 4969 4963 4965 4969 4971 4969 4969 4967 4967 4970 4970 4975 4976 4977 4977 4981 4982 4988 4989 4990 4996 5007 5013 5015 5013 5009 5005 5004 5002 5004 5005 5007 5008 5010 5008 5011 5011 5013 5016 5019 5022 5021 5024 5025 5028 5029 5033 5035 5034 5035 5039 5042 5045 5047 5049 5051 5054 5056 5057 5059 5063 5067 5069 5070 5071 5073 5077 5081 5081 5085 5087 5096 5099 5103 5106 5114 5117 5119 5122 5128 5133 5137 5140 5140 5144 5150 5151 5153 5155 5156 5161 5165 5173 5173 5176 5182 5193 5204 5217 5223 5233 5242 5248 5256 5262 5274 5283 5290 5297 5304 5316 5328 5339 5358 5394 5436 5478 5527 5575 5613 5666 5711 5753 5796 5829 5867 5895 5919 5957 6001 6026 6000 5958 5913 5867 5825 5784 5753 5744 5745 5747 5757 5784 5822 5863 5909 5957 5987 6003 6010 6023 6044 6064 6068 6077 6086 6070 6055 6041 6027 6011 5989 5958 5925 5894 5853 5817 5778 5744 5707 5669 5628 5595 5565 5539 5511 5483 5463 5447 5433 5420 5405 5389 5367 5339 5308 5278 5253 5233 5216 5199 5183 5166 5151 5135 5124 5115 5103 5094 5083 5077 5069 5061 5055 5050 5044 5037 5028 5021 5012 5005 4996 4991 4991 4986 4988 4990 4998 5005 5015 5023 5031 5032 5027 5009 4994 4991 4993 5022 5061 5103 5145 5182 5191 5171 5141 5109 5081 5064 5053 5047 5031 4984 4935 4881 4831 4780 4725 4697 4673 4627 4593 4583 4566 4550 4538 4528 4520 4517 4517 4519 4516 4518 4514 4509 4515 4513 4511 4511 4511 4514 4508 4514 4514 4516 4512 4508 4509 4517 4518 4521 4528 4533 4543 4553 4565 4574 4579 4585 4593 4603 4608 4612 4616 4620 4629 4641 4659 4677 4694 4718 4742 4766 4797 4834 4873 4910 4941 4952 4940 4925 4928 4938 4958 4975 4998 5008 4978 4943 4922 4907 4903 4904 4898 4895 4892 4887 4880 4876 4874 4879 4883 4885 4890 4894 4902 4911 4918 4929 4950 4972 4994 5015 5033 5052 5070 5095 5127 5159 5196 5233 5245 5229 5204 5181 5155 5132 5118 5113 5119 5162 5204 5262 5300 5334 5348 5353 5356 5359 5361 5357 5340 5315 5288 5272 5266 5262 5269 5276 5296 5321 5348 5354 5325 5290 5257 5230 5206 5210 5239 5269 5285 5297 5312 5309 5264 5236 5223 5213 5204 5170 5138 5134 5173 5216 5237 5210 5177 5144 5120 5119 5120 5087 5048 5019 4997 4987 4996 5000 5018 5055 5093 5105 5089 5060 5031 5009 4985 4963 4949 4952 4962 4980 5009 5027 5027 5001 4969 4928 4911 4907 4911 4912 4913 4921 4942 4964 4966 4963 4962 4981 5001 5029 5060 5067 5063 5056 5045 5037 5031 5030 5049
4728 4726 4726 4726 4724 4724 4723 4722 4721 4719 4719 4718 4716 4717 4717 4713 4715 4715 4716 4711 4713 4715 4710 4709 4713 4711 4707 4718 4735 4733 4730 4729 4728 4727 4725 4731 4735 4738 4742 4749 4752 4763 4776 4794 4806 4812 4823 4827 4828 4829 4833 4834 4832 4836 4841 4844 4850 4851 4848 4845 4843 4843 4842 4838 4836 4837 4834 4829 4836 4841 4842 4844 4849 4856 4858 4860 4869 4878 4891 4910 4935 4959 4979 4988 5003 5023 5035 5037 5047 5054 5057 5060 5062 5067 5071 5070 5068 5064 5060 5060 5054 5053 5056 5062 5069 5075 5083 5094 5101 5111 5119 5130 5135 5143 5149 5150 5144 5134 5120 5102 5086 5071 5058 5046 5035 5025 5015 5008 5001 4994 4986 4983 4973 4973 4968 4966 4962 4962 4969 4967 4970 4969 4967 4968 4970 4973 4978 4980 4980 4984 4988 4988 4992 4992 4992 4997 5009 5013 5010 5001 5001 5003 5001 5000 5001 5002 5006 5007 5009 5009 5010 5009 5012 5015 5018 5019 5020 5021 5026 5026 5026 5031 5035 5035 5038 5039 5043 5043 5045 5050 5051 5052 5056 5059 5063 5066 5068 5072 5073 5074 5074 5079 5081 5082 5084 5086 5087 5092 5096 5101 5106 5113 5115 5119 5123 5128 5132 5136 5133 5141 5145 5144 5148 5149 5154 5159 5161 5165 5171 5179 5189 5205 5212 5222 5230 5235 5244 5252 5264 5275 5286 5299 5303 5307 5313 5321 5334 5348 5363 5400 5450 5485 5526 5568 5606 5645 5679 5712 5749 5789 5828 5860 5893 5938 5986 6024 6017 5978 5938 5888 5842 5799 5753 5735 5733 5735 5743 5766 5802 5847 5885 5910 5921 5925 5941 5959 5975 5995 6008 6023 6037 6041 6048 6060 6055 6024 5982 5940 5905 5868 5831 5798 5769 5739 5704 5673 5647 5626 5597 5572 5541 5513 5492 5471 5456 5445 5429 5406 5372 5338 5304 5277 5252 5226 5214 5199 5186 5173 5158 5142 5125 5107 5093 5080 5071 5058 5049 5039 5034 5029 5021 5018 5013 5005 4995 4986 4983 4978 4971 4966 4969 4972 4977 4978 4985 4993 5000 4997 4993 4979 4968 4968 4973 5004 5047 5081 5131 5164 5153 5126 5091 5059 5029 5006 4993 4996 4994 4958 4917 4886 4817 4757 4716 4668 4648 4628 4603 4589 4572 4560 4544 4528 4521 4519 4520 4519 4515 4517 4520 4517 4516 4513 4513 4512 4513 4510 4512 4515 4514 4515 4520 4514 4513 4517 4518 4520 4526 4532 4539 4548 4555 4563 4569 4577 4584 4592 4598 4603 4605 4611 4623 4642 4659 4678 4698 4719 4748 4778 4809 4844 4885 4923 4959 4982 4982 4973 4977 4985 4997 5021 5041 5034 4999 4968 4950 4938 4935 4941 4935 4926 4922 4918 4910 4902 4900 4903 4905 4906 4906 4910 4914 4922 4931 4942 4958 4980 5001 5032 5057 5082 5104 5126 5155 5186 5222 5261 5279 5276 5245 5212 5190 5160 5140 5131 5130 5155 5188 5227 5262 5281 5298 5311 5316 5326 5332 5328 5336 5330 5309 5290 5280 5278 5291 5306 5322 5339 5358 5357 5323 5280 5227 5189 5176 5189 5226 5237 5234 5244 5269 5288 5259 5214 5179 5160 5150 5135 5102 5107 5139 5176 5203 5185 5140 5104 5077 5085 5101 5083 5039 5008 4981 4972 4975 4988 5017 5050 5083 5079 5063 5036 5012 4990 4968 4951 4942 4943 4954 4973 4993 5000 4999 4975 4944 4917 4907 4906 4909 4910 4920 4932 4958 4992 5000 4983 4974 4979 4991 5010 5029 5044 5055 5066 5068 5066 5053 5046 5057
4727 4727 4725 4725 4723 4722 4721 4721 4719 4719 4718 4716 4716 4716 4715 4713 4715 4717 4717 4714 4713 4715 4716 4709 4714 4709 4712 4716 4736 4740 4732 4730 4729 4729 4728 4730 4731 4736 4740 4744 4747 4754 4769 4782 4790 4801 4808 4816 4818 4821 4822 4822 4823 4829 4835 4834 4836 4837 4839 4835 4836 4837 4834 4835 4833 4831 4826 4829 4832 4839 4842 4844 4848 4852 4856 4857 4868 4878 4892 4913 4940 4962 4986 5004 5016 5032 5045 5052 5058 5064 5068 5067 5067 5072 5075 5074 5075 5067 5063 5061 5060 5058 5055 5061 5069 5077 5084 5094 5101 5110 5124 5137 5142 5146 5154 5157 5156 5146 5129 5112 5093 5079 5062 5050 5037 5029 5018 5011 5004 4997 4991 4986 4977 4973 4969 4963 4964 4963 4966 4965 4968 4963 4963 4968 4972 4979 4984 4986 4987 4989 4993 4995 4993 4994 4996 4995 5001 5005 5004 5000 4998 5000 5000 5002 5000 5003 5003 5005 5005 5007 5011 5011 5012 5014 5016 5021 5022 5022 5025 5024 5031 5036 5042 5045 5046 5046 5046 5041 5047 5052 5052 5053 5058 5059 5063 5068 5069 5072 5073 5073 5076 5079 5081 5084 5087 5091 5092 5096 5097 5102 5102 5105 5110 5112 5115 5120 5122 5127 5129 5136 5137 5139 5142 5148 5151 5158 5163 5172 5183 5192 5202 5214 5221 5230 5239 5245 5252 5258 5266 5285 5292 5301 5311 5322 5328 5335 5347 5360 5368 5389 5423 5456 5493 5526 5559 5593 5626 5663 5696 5741 5774 5814 5855 5899 5962 6007 6028 5998 5949 5902 5848 5798 5752 5724 5716 5717 5724 5751 5786 5824 5849 5859 5865 5872 5883 5899 5912 5928 5945 5962 5972 5980 5998 6028 6043 6008 5968 5934 5894 5857 5825 5801 5772 5746 5720 5703 5684 5660 5635 5609 5579 5550 5525 5503 5487 5469 5440 5406 5366 5331 5302 5276 5251 5235 5229 5221 5204 5191 5176 5157 5137 5119 5103 5086 5070 5054 5040 5027 5014 5008 5000 4999 4996 4989 4982 4974 4965 4959 4953 4949 4948 4950 4954 4957 4958 4959 4963 4961 4959 4949 4942 4942 4959 4991 5029 5072 5113 5132 5115 5085 5046 5010 4982 4956 4937 4935 4946 4930 4904 4875 4821 4761 4698 4657 4634 4623 4599 4580 4566 4553 4540 4525 4519 4515 4513 4515 4516 4516 4516 4512 4515 4514 4512 4513 4517 4515 4514 4516 4513 4516 4514 4522 4521 4513 4514 4520 4527 4532 4537 4542 4549 4556 4564 4571 4578 4581 4585 4593 4601 4608 4623 4639 4657 4677 4706 4728 4756 4789 4828 4867 4902 4942 4979 5018 5029 5025 5030 5037 5049 5071 5089 5070 5029 5002 4980 4968 4974 4978 4973 4966 4962 4958 4950 4938 4930 4932 4934 4934 4932 4932 4933 4934 4943 4954 4966 4980 5007 5037 5074 5107 5133 5156 5181 5215 5249 5283 5310 5312 5288 5257 5224 5195 5167 5144 5142 5156 5175 5197 5220 5242 5261 5279 5291 5291 5283 5275 5286 5293 5288 5275 5262 5266 5281 5293 5308 5332 5352 5343 5304 5261 5212 5168 5142 5158 5190 5194 5190 5198 5224 5257 5269 5238 5182 5143 5111 5087 5071 5072 5100 5139 5162 5153 5115 5070 5048 5052 5072 5069 5026 4986 4969 4957 4967 4979 5006 5039 5061 5056 5041 5019 4999 4975 4953 4941 4933 4937 4943 4959 4964 4966 4960 4937 4913 4903 4902 4905 4907 4909 4930 4952 4970 5006 5028 5016 5005 4996 4997 5006 5014 5028 5048 5068 5089 5092 5079 5070 5076
4727 4727 4724 4723 4722 4721 4720 4720 4718 4718 4718 4717 4717 4716 4716 4713 4714 4714 4714 4715 4715 4717 4716 4710 4711 4708 4713 4717 4731 4744 4738 4731 4728 4728 4728 4729 4730 4732 4735 4739 4743 4749 4759 4771 4782 4793 4800 4809 4812 4815 4816 4819 4820 4826 4827 4827 4830 4829 4830 4830 4832 4833 4831 4828 4827 4825 4826 4826 4833 4836 4840 4843 4845 4849 4852 4856 4866 4875 4891 4914 4937 4958 4984 5005 5024 5047 5061 5064 5067 5072 5075 5075 5075 5079 5077 5080 5079 5073 5067 5063 5059 5056 5055 5061 5067 5073 5078 5087 5098 5107 5120 5134 5142 5148 5156 5166 5166 5155 5137 5118 5100 5085 5067 5055 5040 5030 5020 5011 5009 5001 4994 4989 4984 4974 4968 4964 4965 4962 4961 4962 4962 4961 4960 4969 4972 4977 4986 4990 4992 4995 4995 4998 4996 4998 4999 5001 5001 4997 4998 4997 4996 4997 4999 5001 4999 5002 5004 5006 5005 5007 5010 5011 5014 5017 5018 5019 5020 5022 5022 5024 5029 5039 5041 5042 5048 5052 5051 5052 5054 5058 5057 5055 5058 5059 5065 5067 5067 5069 5073 5075 5078 5083 5082 5086 5088 5092 5095 5096 5100 5102 5105 5107 5111 5113 5117 5120 5121 5126 5129 5131 5138 5145 5151 5158 5162 5172 5177 5182 5192 5202 5210 5220 5232 5239 5245 5253 5262 5269 5279 5305 5316 5321 5322 5331 5338 5347 5363 5375 5387 5397 5408 5421 5449 5478 5510 5547 5584 5621 5654 5698 5737 5776 5827 5877 5924 5979 6013 5993 5952 5904 5851 5800 5754 5722 5707 5702 5706 5728 5755 5781 5794 5800 5811 5819 5827 5840 5853 5873 5890 5901 5909 5926 5951 5983 6009 5994 5964 5929 5890 5861 5830 5808 5787 5772 5754 5740 5720 5694 5664 5638 5604 5576 5544 5514 5485 5453 5421 5383 5350 5323 5296 5276 5264 5262 5268 5257 5240 5226 5211 5189 5160 5139 5121 5096 5075 5057 5039 5027 5015 5003 4991 4980 4972 4970 4967 4960 4952 4942 4937 4931 4927 4932 4932 4929 4929 4924 4924 4930 4933 4926 4913 4920 4945 4974 5006 5049 5091 5101 5079 5050 5020 4978 4935 4906 4887 4880 4886 4876 4865 4859 4828 4779 4717 4662 4629 4607 4591 4576 4559 4545 4533 4523 4520 4519 4514 4517 4518 4516 4509 4507 4506 4520 4516 4513 4513 4512 4512 4517 4517 4517 4514 4517 4517 4516 4517 4521 4524 4531 4536 4541 4545 4553 4561 4568 4572 4577 4580 4584 4590 4602 4621 4643 4663 4682 4711 4745 4783 4815 4849 4891 4928 4967 5007 5052 5077 5077 5082 5095 5102 5117 5132 5114 5073 5043 5020 5005 5010 5018 5018 5013 5005 4999 4991 4975 4967 4967 4970 4973 4966 4957 4953 4950 4955 4964 4973 4991 5013 5041 5080 5115 5142 5172 5205 5238 5273 5308 5336 5347 5325 5293 5259 5218 5188 5162 5165 5181 5192 5209 5226 5251 5271 5291 5294 5263 5235 5223 5230 5242 5248 5245 5238 5243 5250 5253 5271 5299 5328 5321 5274 5235 5179 5138 5111 5125 5145 5146 5143 5156 5187 5226 5254 5260 5220 5169 5116 5069 5044 5043 5069 5098 5123 5131 5095 5051 5020 5017 5033 5040 5009 4972 4955 4949 4957 4972 4996 5021 5033 5031 5015 5003 4985 4961 4940 4935 4928 4926 4932 4955 4947 4935 4923 4907 4900 4900 4900 4904 4903 4911 4934 4964 4980 5001 5026 5045 5046 5031 5022 5024 5032 5043 5051 5071 5092 5102 5104 5104 5100
4726 4725 4724 4722 4721 4721 4718 4717 4718 4715 4717 4715 4716 4715 4713 4712 4711 4712 4714 4716 4706 4713 4715 4711 4712 4714 4712 4712 4726 4744 4743 4734 4731 4728 4726 4728 4730 4730 4729 4735 4738 4747 4752 4763 4776 4785 4794 4798 4807 4808 4812 4816 4815 4822 4821 4821 4825 4827 4828 4826 4826 4824 4825 4828 4827 4825 4826 4828 4833 4833 4842 4844 4843 4846 4851 4860 4867 4874 4889 4910 4931 4954 4979 5004 5028 5052 5070 5070 5074 5075 5080 5080 5078 5083 5083 5084 5083 5078 5075 5066 5060 5056 5051 5055 5054 5063 5076 5083 5089 5099 5119 5134 5146 5155 5164 5169 5169 5159 5142 5124 5109 5088 5074 5056 5043 5032 5023 5014 5008 5001 4997 4987 4981 4976 4968 4969 4963 4960 4959 4958 4960 4963 4963 4967 4967 4975 4988 4993 4992 4996 4999 4998 4997 4997 4997 4997 4995 4993 4996 4994 4995 4996 4997 4998 4997 5001 5003 5005 5005 5005 5009 5012 5012 5015 5019 5020 5021 5020 5022 5028 5034 5039 5042 5046 5047 5053 5057 5063 5063 5061 5062 5065 5066 5069 5067 5067 5069 5073 5074 5076 5079 5083 5084 5088 5087 5092 5095 5096 5101 5102 5106 5110 5114 5118 5121 5125 5127 5131 5133 5138 5149 5156 5160 5166 5173 5178 5186 5193 5202 5214 5227 5238 5256 5263 5268 5271 5278 5293 5307 5325 5339 5344 5336 5342 5355 5361 5374 5391 5407 5418 5426 5435 5448 5466 5486 5511 5543 5581 5624 5665 5711 5758 5801 5847 5892 5949 5992 5994 5941 5890 5850 5799 5753 5722 5703 5691 5689 5699 5717 5732 5744 5749 5761 5775 5784 5790 5802 5821 5832 5845 5856 5877 5908 5953 5996 5997 5968 5933 5899 5872 5849 5831 5814 5807 5795 5776 5746 5711 5671 5632 5592 5552 5522 5483 5449 5418 5389 5361 5340 5320 5307 5302 5300 5304 5310 5300 5280 5264 5248 5221 5194 5173 5148 5117 5094 5066 5039 5029 5015 4999 4990 4977 4964 4958 4948 4944 4939 4930 4924 4917 4913 4909 4910 4905 4900 4897 4895 4901 4905 4905 4895 4905 4922 4955 4988 5028 5067 5065 5037 5013 4992 4973 4929 4884 4847 4829 4828 4820 4814 4807 4780 4762 4727 4674 4628 4599 4580 4571 4555 4544 4533 4522 4519 4524 4518 4519 4519 4518 4514 4511 4513 4513 4515 4516 4518 4512 4510 4516 4513 4516 4514 4515 4518 4516 4521 4523 4527 4530 4534 4539 4543 4550 4556 4564 4567 4571 4575 4581 4590 4607 4631 4658 4679 4700 4733 4770 4812 4846 4880 4914 4956 5001 5038 5078 5105 5119 5130 5142 5156 5165 5166 5151 5124 5090 5058 5056 5053 5059 5062 5061 5056 5049 5039 5021 5010 5011 5014 5011 4998 4984 4971 4970 4967 4977 4987 4998 5018 5044 5075 5111 5136 5174 5211 5253 5293 5327 5356 5373 5353 5312 5272 5231 5201 5181 5192 5213 5217 5232 5254 5280 5304 5317 5299 5257 5220 5189 5177 5185 5195 5200 5210 5221 5218 5210 5238 5262 5296 5311 5271 5207 5159 5123 5082 5074 5096 5099 5102 5127 5165 5192 5215 5236 5228 5180 5126 5069 5030 5016 5031 5056 5088 5101 5082 5039 5005 4991 5000 5018 4995 4964 4941 4942 4944 4955 4972 4994 5003 4996 4990 4985 4971 4945 4928 4919 4925 4920 4924 4940 4925 4908 4899 4899 4901 4900 4903 4905 4905 4913 4925 4940 4962 4985 5024 5061 5078 5075 5070 5075 5080 5085 5075 5069 5080 5097 5118 5129 5134
