4692 4682 4668 4659 4649 4639 4630 4622 4614 4605 4597 4592 4583 4578 4573 4565 4560 4557 4556 4550 4542 4542 4544 4543 4549 4550 4550 4549 4550 4551 4552 4552 4552 4552 4553 4552 4553 4552 4543 4537 4537 4536 4534 4533 4533 4533 4534 4535 4536 4535 4535 4535 4535 4533 4534 4534 4534 4534 4533 4531 4532 4532 4530 4531 4532 4528 4524 4522 4524 4522 4523 4522 4523 4522 4521 4521 4520 4521 4522 4521 4519 4520 4522 4523 4520 4521 4519 4519 4519 4518 4517 4519 4519 4519 4519 4517 4519 4518 4516 4516 4515 4518 4517 4514 4515 4518 4519 4518 4518 4515 4513 4510 4516 4516 4514 4508 4514 4511 4513 4514 4515 4514 4512 4513 4513 4513 4510 4510 4512 4511 4509 4510 4511 4515 4510 4510 4510 4510 4507 4508 4509 4508 4511 4507 4510 4511 4509 4509 4505 4506 4504 4504 4507 4509 4507 4506 4504 4503 4505 4505 4504 4503 4503 4503 4502 4500 4504 4504 4509 4513 4517 4522 4530 4539 4546 4547 4560 4574 4597 4632 4668 4681 4674 4678 4692 4703 4724 4755 4770 4760 4751 4735 4715 4689 4656 4605 4557 4528 4512 4503 4500 4501 4497 4495 4493 4495 4494 4490 4489 4493 4493 4487 4485 4482 4482 4483 4485 4485 4487 4490 4492 4490 4492 4491 4489 4489 4489 4489 4494 4494 4499 4508 4517 4526 4529 4535 4539 4531 4511 4496 4485 4482 4484 4482 4480 4480 4479 4479 4479 4479 4480 4482 4481 4483 4482 4484 4495 4503 4503 4493 4479 4476 4473 4469 4471 4473 4473 4473 4475 4477 4480 4488 4496 4497 4497 4496 4498 4499 4499 4495 4487 4485 4483 4483 4483 4477 4476 4476 4477 4476 4476 4477 4474 4476 4475 4476 4477 4475 4474 4473 4474 4472 4473 4472 4472 4471 4470 4469 4468 4468 4467 4464 4467 4468 4469 4468 4465 4467 4468 4467 4467 4467 4468 4468 4471 4473 4477 4483 4489 4493 4499 4506 4511 4515 4518 4519 4511 4504 4500 4495 4491 4490 4489 4489 4489 4488 4493 4495 4496 4499 4499 4503 4506 4510 4512 4512 4513 4516 4518 4515 4518 4516 4517 4516 4513 4514 4517 4520 4514 4504 4497 4493 4490 4490 4489 4485 4484 4482 4482 4479 4479 4475 4472 4471 4469 4468 4466 4467 4464 4462 4462 4465 4463 4463 4462 4463 4463 4462 4462 4463 4463 4462 4460 4463 4462 4456 4458 4460 4462 4461 4460 4459 4458 4459 4458 4455 4457 4457 4456 4456 4456 4454 4455 4455 4453 4453 4452 4452 4452 4452 4451 4451 4451 4452 4451 4450 4453 4450 4451 4451 4453 4452 4453 4450 4449 4449 4450 4450 4449 4449 4446 4443 4443 4439 4439 4437 4436 4436 4435 4434 4431 4433 4431 4428 4429 4429 4425 4429 4427 4428 4429 4429 4428 4428 4426 4424 4425 4426 4427 4425 4426 4423 4427 4428 4426 4428 4423 4424 4426 4427 4424 4424 4424 4424 4424 4424 4424 4424 4424 4424 4424 4424 4424 4424 4424 4424 4424 4424 4424 4424 4424 4424 4424 4424 4424 4424 4424 4424 4424 4424 4424 4424 4424 4424 4424 4424 4424 4424 4424 4424 4424 4424 4424 4424 4424 4424 4424 4424 4424 4424 4424 4424 4424 4424 4424 4424 4424 4424 4424 4424 4424 4424 4424 4424 4424 4424 4424 4424 4424 4424 4424 4424 4424 4424 4424 4424 4424 4424 4424 4424 4424 4424 4424 4424 4424 4424 4424 4424 4424 4424 4424 4424 4424 4424 4424 4424 4424 4424 4424 4424 4424 4424 4424 4424 4424 4424 4424
4687 4680 4666 4656 4647 4636 4627 4619 4610 4604 4596 4589 4583 4577 4571 4566 4566 4563 4559 4555 4550 4550 4553 4550 4553 4558 4557 4557 4555 4558 4559 4557 4556 4555 4558 4557 4557 4554 4538 4537 4537 4537 4536 4535 4536 4537 4536 4534 4536 4536 4536 4534 4535 4535 4535 4535 4534 4535 4535 4533 4532 4533 4532 4533 4533 4532 4525 4522 4523 4523 4523 4523 4523 4523 4521 4521 4523 4522 4521 4520 4520 4520 4519 4521 4520 4519 4520 4518 4518 4520 4518 4519 4519 4518 4518 4518 4517 4518 4516 4515 4516 4518 4515 4514 4516 4517 4520 4519 4516 4515 4513 4514 4514 4514 4513 4513 4515 4516 4515 4515 4515 4513 4514 4516 4513 4514 4511 4510 4514 4512 4514 4510 4511 4514 4510 4511 4509 4512 4510 4508 4510 4510 4509 4507 4508 4508 4507 4506 4504 4505 4504 4502 4502 4506 4505 4502 4502 4504 4504 4502 4503 4502 4500 4500 4500 4501 4504 4506 4512 4514 4516 4521 4526 4535 4540 4544 4552 4563 4583 4614 4640 4641 4638 4637 4647 4654 4676 4700 4712 4706 4700 4679 4666 4653 4634 4591 4551 4523 4511 4505 4501 4497 4495 4495 4492 4494 4496 4496 4496 4497 4498 4493 4491 4484 4487 4486 4485 4488 4488 4487 4492 4492 4493 4493 4489 4489 4490 4489 4491 4499 4500 4506 4514 4524 4532 4540 4548 4535 4512 4495 4487 4485 4484 4482 4481 4478 4480 4480 4478 4480 4481 4485 4481 4484 4486 4489 4498 4506 4508 4496 4487 4479 4473 4472 4472 4474 4476 4473 4473 4476 4481 4489 4496 4496 4494 4493 4495 4497 4495 4487 4484 4481 4481 4480 4479 4477 4477 4479 4478 4475 4476 4476 4476 4476 4474 4476 4476 4476 4474 4469 4470 4471 4470 4470 4471 4468 4469 4465 4466 4467 4470 4468 4466 4469 4467 4468 4469 4468 4467 4466 4468 4468 4467 4464 4467 4472 4475 4478 4480 4483 4488 4494 4499 4506 4510 4506 4501 4497 4493 4490 4487 4482 4480 4483 4485 4483 4488 4491 4491 4495 4496 4498 4504 4507 4508 4508 4509 4510 4509 4506 4502 4498 4499 4501 4501 4504 4505 4509 4506 4493 4485 4483 4483 4479 4480 4479 4479 4477 4477 4476 4474 4472 4469 4468 4468 4468 4464 4463 4463 4460 4461 4463 4464 4462 4462 4462 4463 4462 4464 4464 4459 4461 4461 4459 4459 4460 4457 4458 4457 4458 4459 4458 4457 4459 4458 4458 4458 4456 4455 4455 4457 4458 4453 4453 4455 4454 4453 4451 4453 4453 4450 4449 4450 4451 4450 4450 4450 4451 4452 4452 4453 4454 4451 4450 4451 4451 4451 4447 4447 4447 4442 4439 4442 4441 4437 4437 4436 4433 4433 4429 4428 4431 4432 4430 4431 4429 4425 4428 4428 4427 4428 4427 4426 4427 4428 4425 4425 4426 4427 4426 4427 4425 4424 4427 4423 4425 4428 4426 4425 4424 4424 4424 4424 4424 4424 4424 4424 4424 4424 4424 4424 4424 4424 4424 4424 4424 4424 4424 4424 4424 4424 4424 4424 4424 4424 4424 4424 4424 4424 4424 4424 4424 4424 4424 4424 4424 4424 4424 4424 4424 4424 4424 4424 4424 4424 4424 4424 4424 4424 4424 4424 4424 4424 4424 4424 4424 4424 4424 4424 4424 4424 4424 4424 4424 4424 4424 4424 4424 4424 4424 4424 4424 4424 4424 4424 4424 4424 4424 4424 4424 4424 4424 4424 4424 4424 4424 4424 4424 4424 4424 4424 4424 4424 4424 4424 4424 4424 4424 4424 4424 4424 4424 4424 4424 4424 4424 4424
4685 4673 4662 4652 4643 4631 4623 4614 4608 4601 4594 4590 4581 4576 4570 4569 4571 4569 4568 4562 4555 4556 4557 4556 4555 4559 4560 4559 4563 4567 4566 4562 4560 4559 4559 4559 4557 4551 4539 4538 4537 4537 4537 4537 4538 4539 4536 4536 4535 4538 4537 4536 4537 4537 4536 4536 4535 4534 4535 4531 4530 4533 4536 4537 4532 4531 4530 4525 4523 4524 4523 4524 4523 4524 4525 4523 4523 4523 4523 4524 4522 4520 4521 4522 4520 4520 4521 4520 4518 4521 4521 4520 4519 4518 4518 4518 4518 4517 4516 4519 4519 4517 4518 4516 4515 4517 4519 4516 4516 4514 4514 4513 4515 4514 4514 4516 4513 4516 4516 4517 4515 4516 4513 4514 4512 4515 4513 4513 4515 4511 4513 4513 4513 4516 4512 4510 4506 4510 4512 4512 4511 4508 4507 4507 4506 4505 4505 4506 4504 4505 4506 4506 4503 4503 4505 4502 4504 4503 4505 4502 4501 4501 4502 4503 4502 4502 4502 4506 4510 4510 4514 4517 4524 4527 4533 4540 4550 4558 4570 4588 4604 4612 4611 4606 4609 4615 4629 4647 4656 4653 4643 4628 4614 4611 4598 4568 4541 4516 4507 4506 4499 4495 4489 4492 4496 4493 4493 4497 4502 4506 4511 4509 4509 4506 4501 4495 4492 4493 4495 4494 4493 4492 4492 4492 4490 4489 4490 4490 4494 4500 4504 4507 4518 4525 4534 4543 4546 4530 4506 4490 4487 4485 4483 4484 4481 4479 4479 4477 4478 4479 4482 4485 4481 4480 4486 4492 4498 4508 4510 4498 4487 4481 4477 4475 4473 4473 4474 4473 4473 4475 4483 4492 4495 4492 4490 4489 4491 4490 4487 4483 4481 4479 4481 4480 4477 4477 4479 4478 4477 4477 4476 4476 4475 4476 4474 4475 4475 4475 4473 4473 4470 4470 4469 4472 4471 4468 4470 4469 4469 4469 4468 4469 4467 4470 4467 4468 4469 4470 4469 4469 4468 4467 4466 4465 4468 4472 4476 4475 4476 4477 4479 4483 4488 4493 4498 4498 4495 4488 4482 4481 4476 4477 4475 4478 4480 4480 4481 4486 4490 4491 4493 4494 4496 4498 4499 4499 4499 4496 4495 4493 4492 4493 4494 4495 4496 4499 4496 4498 4493 4480 4473 4474 4473 4473 4475 4472 4473 4474 4473 4473 4470 4469 4467 4467 4465 4465 4462 4461 4464 4464 4464 4464 4461 4461 4463 4463 4464 4462 4463 4461 4459 4459 4461 4458 4458 4458 4455 4456 4457 4460 4461 4460 4456 4457 4457 4453 4456 4456 4457 4459 4453 4454 4453 4454 4455 4454 4453 4453 4451 4450 4451 4451 4448 4449 4450 4449 4451 4452 4454 4455 4453 4455 4452 4451 4450 4451 4449 4447 4444 4443 4443 4440 4441 4440 4438 4436 4436 4432 4431 4429 4428 4429 4429 4427 4431 4430 4426 4428 4428 4428 4427 4426 4426 4427 4425 4424 4425 4426 4427 4425 4425 4426 4426 4427 4425 4423 4424 4424 4424 4424 4424 4424 4424 4424 4424 4424 4424 4424 4424 4424 4424 4424 4424 4424 4424 4424 4424 4424 4424 4424 4424 4424 4424 4424 4424 4424 4424 4424 4424 4424 4424 4424 4424 4424 4424 4424 4424 4424 4424 4424 4424 4424 4424 4424 4424 4424 4424 4424 4424 4424 4424 4424 4424 4424 4424 4424 4424 4424 4424 4424 4424 4424 4424 4424 4424 4424 4424 4424 4424 4424 4424 4424 4424 4424 4424 4424 4424 4424 4424 4424 4424 4424 4424 4424 4424 4424 4424 4424 4424 4424 4424 4424 4424 4424 4424 4424 4424 4424 4424 4424 4424 4424 4424 4424 4424 4424 4424
4679 4668 4661 4649 4637 4628 4620 4613 4602 4597 4591 4585 4579 4575 4572 4573 4573 4575 4573 4564 4561 4562 4560 4557 4560 4562 4561 4563 4565 4568 4565 4565 4563 4563 4563 4562 4556 4548 4540 4540 4539 4539 4538 4538 4538 4537 4537 4537 4539 4538 4537 4535 4536 4537 4537 4537 4536 4535 4534 4533 4533 4533 4534 4535 4533 4530 4530 4528 4524 4525 4525 4526 4523 4523 4524 4522 4523 4519 4522 4523 4521 4523 4522 4523 4521 4520 4522 4522 4522 4523 4520 4523 4521 4519 4518 4519 4517 4517 4516 4519 4517 4520 4520 4516 4519 4516 4518 4520 4518 4518 4516 4514 4513 4516 4516 4514 4515 4515 4519 4517 4515 4517 4513 4511 4515 4514 4515 4516 4515 4513 4513 4514 4512 4512 4511 4511 4512 4511 4510 4509 4511 4508 4506 4508 4508 4508 4507 4508 4506 4506 4507 4508 4506 4502 4506 4504 4502 4503 4504 4503 4501 4501 4505 4504 4503 4501 4499 4502 4507 4508 4514 4516 4519 4522 4529 4539 4546 4554 4564 4579 4591 4595 4597 4596 4589 4585 4593 4605 4608 4603 4597 4584 4571 4569 4561 4548 4525 4505 4497 4494 4491 4491 4490 4491 4493 4490 4491 4497 4506 4517 4523 4526 4522 4512 4503 4499 4497 4496 4493 4494 4493 4494 4494 4490 4491 4492 4492 4496 4500 4503 4508 4513 4523 4531 4538 4543 4532 4513 4498 4489 4486 4483 4483 4483 4483 4483 4480 4480 4481 4479 4478 4485 4484 4484 4489 4492 4498 4507 4508 4497 4490 4481 4476 4473 4475 4475 4472 4475 4475 4479 4486 4492 4491 4487 4484 4484 4485 4480 4481 4480 4478 4478 4478 4477 4478 4478 4477 4477 4477 4477 4476 4475 4474 4476 4475 4476 4475 4475 4473 4471 4470 4470 4472 4472 4470 4468 4467 4469 4465 4464 4467 4468 4468 4468 4468 4469 4470 4469 4468 4469 4471 4468 4463 4465 4470 4471 4473 4473 4471 4475 4472 4477 4480 4482 4487 4489 4485 4480 4475 4470 4468 4472 4472 4472 4476 4477 4477 4481 4484 4484 4485 4485 4485 4487 4488 4487 4488 4488 4488 4487 4486 4489 4491 4492 4493 4494 4493 4488 4476 4473 4470 4467 4467 4467 4468 4468 4469 4469 4470 4469 4468 4468 4467 4465 4464 4464 4464 4463 4464 4463 4462 4462 4462 4463 4462 4461 4462 4462 4460 4459 4459 4461 4457 4456 4456 4458 4459 4459 4460 4460 4459 4457 4459 4456 4457 4455 4458 4457 4458 4458 4456 4454 4456 4456 4453 4451 4451 4451 4449 4450 4449 4449 4446 4447 4448 4448 4451 4450 4452 4453 4453 4452 4452 4451 4450 4449 4449 4448 4445 4443 4444 4441 4438 4437 4436 4436 4434 4432 4430 4428 4429 4430 4428 4427 4427 4428 4425 4429 4430 4429 4427 4427 4426 4428 4427 4426 4425 4425 4425 4427 4427 4426 4424 4426 4426 4426 4426 4424 4424 4424 4424 4424 4424 4424 4424 4424 4424 4424 4424 4424 4424 4424 4424 4424 4424 4424 4424 4424 4424 4424 4424 4424 4424 4424 4424 4424 4424 4424 4424 4424 4424 4424 4424 4424 4424 4424 4424 4424 4424 4424 4424 4424 4424 4424 4424 4424 4424 4424 4424 4424 4424 4424 4424 4424 4424 4424 4424 4424 4424 4424 4424 4424 4424 4424 4424 4424 4424 4424 4424 4424 4424 4424 4424 4424 4424 4424 4424 4424 4424 4424 4424 4424 4424 4424 4424 4424 4424 4424 4424 4424 4424 4424 4424 4424 4424 4424 4424 4424 4424 4424 4424 4424 4424 4424 4424 4424 4424
4674 4667 4657 4646 4634 4627 4618 4608 4602 4596 4587 4583 4579 4574 4575 4577 4569 4568 4565 4565 4562 4563 4561 4559 4563 4565 4564 4564 4566 4564 4561 4564 4564 4563 4562 4561 4555 4544 4541 4541 4540 4537 4540 4541 4537 4539 4537 4538 4538 4539 4539 4540 4537 4538 4538 4538 4537 4535 4536 4536 4538 4537 4535 4534 4533 4532 4533 4531 4528 4526 4524 4525 4524 4524 4524 4525 4523 4522 4523 4522 4520 4523 4521 4521 4522 4521 4522 4521 4522 4522 4521 4521 4521 4521 4518 4520 4519 4518 4517 4518 4519 4518 4519 4519 4520 4517 4520 4521 4516 4516 4515 4517 4518 4519 4517 4516 4513 4518 4520 4515 4513 4514 4515 4515 4514 4514 4514 4513 4516 4514 4511 4514 4513 4514 4513 4512 4513 4510 4511 4509 4509 4510 4509 4508 4507 4509 4508 4507 4507 4507 4507 4508 4508 4507 4503 4501 4504 4504 4504 4505 4503 4502 4503 4503 4504 4503 4499 4501 4505 4507 4510 4514 4515 4520 4526 4533 4539 4550 4561 4571 4582 4586 4588 4588 4582 4570 4565 4571 4573 4574 4568 4556 4544 4542 4535 4521 4511 4501 4495 4491 4488 4487 4489 4490 4493 4492 4493 4500 4511 4519 4527 4528 4515 4505 4498 4495 4492 4491 4491 4491 4493 4495 4493 4493 4494 4497 4503 4513 4519 4520 4524 4527 4534 4541 4547 4541 4524 4504 4492 4488 4491 4489 4483 4484 4485 4483 4483 4482 4480 4480 4480 4480 4481 4482 4487 4492 4497 4499 4499 4490 4486 4484 4478 4476 4476 4473 4470 4473 4476 4481 4490 4490 4486 4483 4482 4481 4481 4477 4478 4478 4476 4476 4477 4476 4476 4477 4477 4477 4477 4475 4475 4476 4475 4474 4473 4474 4475 4475 4473 4472 4473 4470 4467 4470 4471 4467 4467 4469 4469 4469 4467 4469 4467 4469 4470 4470 4468 4470 4468 4468 4465 4469 4469 4467 4468 4468 4467 4467 4469 4468 4467 4470 4473 4474 4478 4475 4473 4468 4467 4468 4469 4469 4470 4471 4475 4475 4476 4478 4477 4475 4478 4478 4478 4483 4484 4482 4481 4483 4486 4486 4486 4487 4487 4489 4487 4488 4482 4473 4468 4468 4469 4465 4466 4465 4464 4466 4467 4465 4466 4467 4466 4466 4466 4465 4464 4463 4463 4461 4461 4462 4462 4462 4462 4463 4462 4464 4462 4460 4462 4461 4459 4455 4457 4455 4456 4456 4455 4457 4458 4460 4459 4460 4458 4457 4455 4455 4457 4455 4455 4455 4455 4454 4454 4454 4453 4450 4451 4450 4449 4450 4451 4447 4448 4449 4448 4448 4449 4450 4452 4451 4452 4451 4450 4450 4450 4448 4448 4447 4442 4442 4442 4441 4438 4435 4438 4435 4433 4430 4432 4432 4430 4430 4425 4426 4428 4428 4426 4427 4426 4428 4429 4428 4429 4428 4426 4426 4427 4425 4426 4427 4426 4426 4425 4425 4427 4427 4426 4426 4424 4424 4424 4424 4424 4424 4424 4424 4424 4424 4424 4424 4424 4424 4424 4424 4424 4424 4424 4424 4424 4424 4424 4424 4424 4424 4424 4424 4424 4424 4424 4424 4424 4424 4424 4424 4424 4424 4424 4424 4424 4424 4424 4424 4424 4424 4424 4424 4424 4424 4424 4424 4424 4424 4424 4424 4424 4424 4424 4424 4424 4424 4424 4424 4424 4424 4424 4424 4424 4424 4424 4424 4424 4424 4424 4424 4424 4424 4424 4424 4424 4424 4424 4424 4424 4424 4424 4424 4424 4424 4424 4424 4424 4424 4424 4424 4424 4424 4424 4424 4424 4424 4424 4424 4424 4424 4424 4424 4424
4671 4664 4654 4643 4634 4625 4613 4606 4598 4593 4585 4580 4576 4572 4571 4571 4569 4564 4566 4569 4567 4566 4564 4564 4563 4562 4566 4566 4566 4565 4564 4565 4564 4561 4562 4559 4549 4542 4541 4542 4541 4540 4540 4540 4539 4541 4541 4540 4539 4538 4540 4540 4538 4538 4539 4539 4539 4537 4539 4538 4537 4537 4535 4534 4534 4534 4532 4531 4528 4526 4527 4526 4525 4526 4526 4525 4524 4523 4525 4524 4522 4522 4524 4524 4523 4523 4524 4523 4524 4523 4521 4523 4523 4520 4521 4521 4520 4520 4517 4519 4519 4520 4520 4520 4521 4517 4517 4518 4517 4514 4515 4517 4518 4519 4520 4519 4516 4515 4517 4515 4513 4513 4515 4515 4515 4515 4514 4513 4516 4513 4513 4513 4514 4509 4514 4513 4512 4510 4510 4507 4507 4508 4507 4510 4508 4509 4509 4508 4508 4507 4505 4504 4506 4505 4504 4506 4507 4508 4503 4503 4505 4503 4506 4504 4504 4504 4503 4501 4500 4501 4508 4512 4513 4517 4520 4527 4535 4548 4558 4567 4572 4578 4582 4584 4579 4563 4553 4549 4548 4546 4541 4530 4523 4520 4514 4507 4502 4499 4494 4492 4488 4489 4490 4488 4489 4490 4490 4497 4508 4520 4526 4522 4510 4503 4497 4494 4494 4489 4493 4491 4491 4492 4492 4493 4493 4504 4519 4533 4544 4539 4533 4531 4538 4545 4548 4535 4515 4498 4490 4485 4482 4482 4482 4482 4485 4481 4482 4482 4481 4478 4478 4481 4481 4485 4484 4486 4490 4489 4491 4489 4486 4485 4482 4478 4477 4478 4478 4477 4480 4488 4487 4484 4480 4481 4479 4478 4478 4477 4477 4476 4476 4475 4476 4477 4476 4475 4476 4477 4477 4476 4475 4477 4476 4474 4474 4473 4474 4475 4474 4473 4472 4470 4467 4470 4468 4468 4468 4469 4469 4470 4470 4469 4469 4470 4469 4467 4467 4468 4467 4467 4466 4469 4469 4468 4467 4466 4466 4466 4467 4467 4467 4467 4465 4465 4465 4465 4463 4463 4462 4464 4464 4466 4467 4467 4469 4469 4472 4471 4471 4469 4473 4474 4475 4479 4480 4480 4480 4481 4483 4483 4484 4486 4484 4486 4480 4475 4470 4467 4467 4465 4466 4463 4465 4466 4465 4462 4462 4463 4464 4463 4462 4462 4464 4464 4465 4460 4461 4460 4462 4463 4464 4461 4461 4462 4464 4464 4461 4461 4461 4461 4457 4456 4456 4456 4457 4457 4457 4459 4457 4458 4458 4459 4457 4454 4454 4454 4457 4458 4455 4453 4454 4454 4453 4452 4450 4449 4449 4451 4452 4451 4451 4450 4450 4450 4449 4448 4447 4449 4449 4452 4454 4451 4450 4452 4451 4448 4448 4447 4444 4441 4441 4441 4437 4437 4434 4434 4431 4433 4435 4428 4429 4427 4428 4429 4430 4428 4429 4430 4426 4429 4427 4427 4427 4428 4427 4426 4424 4425 4426 4424 4423 4424 4425 4424 4427 4427 4426 4427 4425 4424 4424 4424 4424 4424 4424 4424 4424 4424 4424 4424 4424 4424 4424 4424 4424 4424 4424 4424 4424 4424 4424 4424 4424 4424 4424 4424 4424 4424 4424 4424 4424 4424 4424 4424 4424 4424 4424 4424 4424 4424 4424 4424 4424 4424 4424 4424 4424 4424 4424 4424 4424 4424 4424 4424 4424 4424 4424 4424 4424 4424 4424 4424 4424 4424 4424 4424 4424 4424 4424 4424 4424 4424 4424 4424 4424 4424 4424 4424 4424 4424 4424 4424 4424 4424 4424 4424 4424 4424 4424 4424 4424 4424 4424 4424 4424 4424 4424 4424 4424 4424 4424 4424 4424 4424 4424 4424 4424
4667 4659 4648 4640 4630 4622 4611 4608 4597 4592 4586 4578 4574 4573 4573 4571 4569 4568 4569 4571 4573 4569 4564 4570 4568 4566 4566 4567 4567 4565 4566 4565 4564 4563 4558 4551 4545 4543 4543 4543 4542 4541 4541 4541 4540 4540 4541 4541 4540 4539 4540 4540 4540 4542 4541 4541 4541 4540 4540 4540 4538 4538 4537 4535 4536 4535 4536 4533 4530 4525 4527 4529 4527 4527 4526 4526 4527 4525 4525 4524 4523 4524 4526 4525 4523 4523 4523 4523 4523 4523 4523 4523 4523 4521 4520 4519 4520 4518 4519 4521 4521 4519 4521 4521 4518 4519 4519 4519 4518 4519 4516 4518 4519 4515 4518 4517 4516 4517 4516 4516 4514 4514 4515 4515 4515 4515 4514 4515 4515 4509 4511 4511 4514 4511 4512 4512 4511 4511 4510 4508 4509 4509 4509 4508 4508 4506 4508 4508 4509 4504 4505 4506 4507 4504 4508 4508 4509 4509 4503 4503 4505 4504 4506 4505 4503 4504 4504 4501 4501 4501 4504 4508 4509 4514 4522 4528 4535 4547 4554 4560 4566 4570 4574 4576 4574 4558 4548 4538 4529 4524 4519 4516 4510 4509 4506 4498 4492 4495 4489 4487 4490 4493 4491 4489 4490 4492 4491 4497 4507 4518 4523 4516 4506 4496 4499 4494 4494 4491 4494 4493 4493 4494 4495 4491 4496 4512 4529 4541 4548 4535 4523 4519 4524 4532 4537 4523 4504 4492 4488 4488 4486 4485 4483 4482 4481 4480 4481 4482 4484 4483 4483 4482 4481 4483 4484 4486 4487 4486 4485 4485 4486 4482 4485 4481 4478 4476 4478 4484 4489 4487 4484 4480 4479 4480 4480 4481 4479 4477 4477 4477 4475 4475 4478 4477 4477 4476 4475 4477 4477 4476 4477 4476 4476 4475 4473 4473 4473 4474 4475 4473 4471 4471 4469 4470 4471 4470 4470 4470 4470 4470 4470 4468 4471 4471 4470 4470 4469 4467 4467 4467 4466 4467 4468 4471 4465 4466 4469 4467 4467 4465 4465 4467 4463 4465 4464 4465 4463 4465 4463 4461 4463 4463 4464 4465 4466 4467 4464 4463 4467 4468 4470 4472 4475 4478 4479 4478 4480 4480 4481 4481 4480 4482 4480 4475 4466 4467 4466 4465 4465 4464 4464 4462 4464 4466 4463 4462 4465 4463 4465 4464 4462 4462 4460 4462 4463 4461 4460 4462 4462 4462 4461 4460 4462 4459 4460 4459 4458 4459 4461 4460 4458 4457 4457 4457 4456 4462 4460 4458 4457 4456 4451 4453 4453 4453 4451 4453 4454 4455 4454 4456 4454 4453 4452 4451 4449 4450 4447 4449 4449 4449 4450 4449 4449 4449 4451 4451 4450 4451 4449 4452 4454 4451 4451 4451 4450 4448 4447 4444 4442 4442 4440 4439 4439 4437 4431 4431 4429 4428 4431 4429 4427 4425 4427 4428 4428 4426 4426 4429 4426 4426 4427 4427 4428 4426 4426 4426 4425 4425 4426 4425 4425 4426 4425 4423 4426 4425 4425 4426 4426 4424 4424 4424 4424 4424 4424 4424 4424 4424 4424 4424 4424 4424 4424 4424 4424 4424 4424 4424 4424 4424 4424 4424 4424 4424 4424 4424 4424 4424 4424 4424 4424 4424 4424 4424 4424 4424 4424 4424 4424 4424 4424 4424 4424 4424 4424 4424 4424 4424 4424 4424 4424 4424 4424 4424 4424 4424 4424 4424 4424 4424 4424 4424 4424 4424 4424 4424 4424 4424 4424 4424 4424 4424 4424 4424 4424 4424 4424 4424 4424 4424 4424 4424 4424 4424 4424 4424 4424 4424 4424 4424 4424 4424 4424 4424 4424 4424 4424 4424 4424 4424 4424 4424 4424 4424 4424 4424 4424
4664 4657 4645 4636 4629 4621 4611 4604 4597 4589 4585 4577 4576 4575 4572 4572 4569 4572 4569 4571 4567 4566 4566 4570 4569 4568 4567 4567 4568 4567 4566 4565 4564 4560 4549 4547 4545 4546 4544 4543 4544 4544 4544 4540 4543 4542 4543 4542 4542 4541 4543 4544 4541 4540 4542 4541 4541 4539 4540 4538 4537 4539 4536 4538 4537 4538 4539 4539 4534 4528 4528 4528 4528 4528 4526 4525 4525 4527 4526 4525 4525 4526 4524 4523 4525 4523 4523 4522 4521 4521 4521 4523 4521 4521 4521 4521 4518 4519 4518 4522 4521 4518 4520 4520 4517 4518 4517 4521 4519 4521 4519 4519 4518 4513 4517 4519 4516 4517 4514 4516 4517 4515 4517 4518 4515 4514 4517 4518 4516 4513 4514 4512 4514 4512 4509 4510 4510 4511 4510 4510 4510 4509 4510 4507 4509 4509 4509 4509 4507 4507 4508 4508 4507 4506 4508 4506 4506 4506 4507 4505 4504 4504 4505 4503 4504 4504 4503 4505 4502 4501 4505 4506 4511 4515 4520 4526 4534 4543 4550 4556 4559 4562 4567 4569 4568 4553 4545 4534 4522 4514 4509 4509 4505 4504 4501 4495 4493 4492 4489 4489 4493 4499 4493 4493 4494 4494 4493 4495 4503 4512 4518 4512 4501 4497 4496 4493 4496 4496 4493 4492 4491 4493 4491 4491 4498 4515 4528 4536 4537 4519 4509 4509 4507 4513 4517 4509 4497 4488 4486 4487 4486 4484 4482 4482 4481 4483 4483 4484 4486 4486 4485 4482 4481 4481 4481 4482 4482 4482 4480 4480 4482 4484 4482 4480 4481 4481 4483 4488 4488 4486 4482 4478 4478 4477 4476 4476 4477 4477 4476 4477 4477 4475 4477 4477 4476 4475 4476 4475 4474 4475 4474 4473 4475 4475 4475 4474 4475 4473 4471 4470 4469 4471 4471 4470 4471 4470 4470 4471 4471 4470 4468 4469 4471 4470 4469 4468 4468 4469 4468 4466 4465 4465 4468 4467 4466 4469 4467 4466 4465 4464 4464 4467 4460 4464 4466 4466 4465 4466 4464 4463 4464 4465 4465 4465 4465 4463 4463 4465 4467 4467 4469 4470 4473 4477 4478 4476 4479 4478 4481 4482 4481 4478 4473 4467 4465 4463 4464 4461 4464 4463 4464 4460 4463 4464 4461 4461 4463 4463 4460 4464 4463 4463 4461 4461 4463 4461 4462 4464 4464 4464 4462 4459 4461 4461 4461 4461 4456 4458 4460 4460 4459 4458 4455 4457 4458 4462 4456 4454 4453 4452 4447 4451 4450 4451 4449 4451 4452 4453 4454 4453 4455 4454 4453 4450 4450 4448 4448 4449 4448 4449 4449 4449 4449 4448 4449 4450 4449 4450 4449 4448 4450 4450 4451 4451 4448 4444 4445 4443 4441 4442 4441 4439 4436 4434 4436 4431 4431 4432 4428 4428 4426 4426 4428 4431 4429 4428 4428 4429 4427 4426 4426 4427 4427 4427 4427 4429 4426 4425 4424 4425 4426 4424 4425 4425 4428 4426 4427 4427 4427 4426 4424 4424 4424 4424 4424 4424 4424 4424 4424 4424 4424 4424 4424 4424 4424 4424 4424 4424 4424 4424 4424 4424 4424 4424 4424 4424 4424 4424 4424 4424 4424 4424 4424 4424 4424 4424 4424 4424 4424 4424 4424 4424 4424 4424 4424 4424 4424 4424 4424 4424 4424 4424 4424 4424 4424 4424 4424 4424 4424 4424 4424 4424 4424 4424 4424 4424 4424 4424 4424 4424 4424 4424 4424 4424 4424 4424 4424 4424 4424 4424 4424 4424 4424 4424 4424 4424 4424 4424 4424 4424 4424 4424 4424 4424 4424 4424 4424 4424 4424 4424 4424 4424 4424 4424 4424 4424 4424
4661 4652 4642 4634 4626 4618 4610 4603 4594 4589 4585 4579 4575 4575 4573 4574 4570 4573 4573 4574 4570 4567 4572 4573 4568 4569 4567 4568 4569 4569 4566 4565 4562 4551 4549 4548 4547 4548 4547 4544 4544 4545 4544 4543 4543 4545 4544 4545 4544 4545 4546 4543 4542 4542 4540 4540 4540 4540 4540 4538 4538 4542 4541 4539 4536 4536 4536 4536 4533 4528 4528 4528 4525 4528 4526 4525 4527 4526 4527 4526 4524 4525 4525 4524 4522 4522 4523 4522 4523 4522 4521 4521 4521 4523 4521 4520 4519 4517 4520 4523 4521 4521 4521 4522 4521 4520 4522 4521 4520 4520 4518 4519 4519 4519 4517 4519 4520 4520 4519 4518 4516 4516 4514 4516 4517 4516 4519 4518 4512 4514 4512 4513 4514 4513 4510 4510 4512 4514 4510 4509 4510 4510 4511 4508 4515 4514 4508 4508 4510 4508 4509 4508 4507 4508 4508 4508 4507 4505 4507 4505 4507 4508 4507 4506 4506 4506 4503 4505 4504 4503 4501 4501 4504 4512 4520 4527 4532 4539 4546 4550 4554 4556 4559 4563 4565 4553 4539 4528 4518 4508 4504 4505 4501 4499 4496 4497 4497 4491 4492 4492 4496 4497 4491 4492 4493 4495 4494 4494 4496 4502 4506 4502 4497 4497 4500 4495 4493 4492 4491 4495 4493 4492 4489 4490 4502 4514 4524 4529 4521 4507 4501 4499 4498 4498 4500 4492 4488 4487 4488 4485 4486 4484 4482 4481 4482 4486 4486 4486 4485 4480 4482 4483 4482 4482 4482 4483 4479 4480 4480 4481 4484 4482 4483 4482 4483 4486 4486 4486 4483 4480 4479 4477 4476 4478 4478 4477 4477 4475 4475 4475 4476 4475 4475 4475 4474 4474 4475 4475 4475 4474 4472 4473 4474 4474 4474 4474 4473 4473 4471 4473 4472 4470 4470 4471 4470 4469 4471 4471 4473 4471 4472 4471 4468 4466 4467 4469 4469 4466 4467 4468 4466 4467 4468 4466 4465 4467 4466 4466 4466 4465 4466 4467 4464 4464 4465 4468 4465 4465 4466 4464 4464 4465 4465 4465 4464 4462 4464 4464 4465 4466 4466 4470 4474 4475 4476 4477 4478 4480 4483 4482 4478 4469 4466 4465 4464 4464 4463 4462 4462 4462 4463 4463 4463 4464 4462 4462 4465 4462 4461 4464 4462 4463 4463 4465 4464 4463 4463 4463 4463 4464 4464 4463 4461 4461 4460 4459 4458 4457 4459 4461 4462 4460 4456 4457 4455 4458 4454 4452 4449 4448 4448 4452 4452 4453 4452 4451 4452 4451 4452 4450 4451 4452 4450 4448 4450 4449 4447 4446 4447 4447 4448 4449 4449 4446 4448 4449 4450 4450 4448 4450 4449 4452 4452 4449 4448 4444 4442 4443 4440 4441 4441 4441 4435 4433 4433 4428 4428 4432 4430 4430 4427 4425 4427 4427 4425 4427 4428 4428 4428 4426 4423 4425 4426 4429 4427 4427 4425 4425 4426 4427 4426 4425 4425 4427 4430 4426 4426 4426 4427 4425 4424 4424 4424 4424 4424 4424 4424 4424 4424 4424 4424 4424 4424 4424 4424 4424 4424 4424 4424 4424 4424 4424 4424 4424 4424 4424 4424 4424 4424 4424 4424 4424 4424 4424 4424 4424 4424 4424 4424 4424 4424 4424 4424 4424 4424 4424 4424 4424 4424 4424 4424 4424 4424 4424 4424 4424 4424 4424 4424 4424 4424 4424 4424 4424 4424 4424 4424 4424 4424 4424 4424 4424 4424 4424 4424 4424 4424 4424 4424 4424 4424 4424 4424 4424 4424 4424 4424 4424 4424 4424 4424 4424 4424 4424 4424 4424 4424 4424 4424 4424 4424 4424 4424 4424 4424 4424 4424
4658 4649 4641 4633 4626 4620 4609 4602 4596 4589 4584 4579 4575 4572 4573 4571 4570 4573 4569 4571 4575 4572 4574 4571 4571 4572 4569 4567 4570 4570 4566 4565 4556 4551 4550 4548 4548 4549 4546 4544 4545 4546 4546 4545 4544 4546 4545 4545 4546 4545 4546 4543 4545 4545 4544 4544 4544 4544 4544 4544 4544 4547 4542 4536 4534 4533 4533 4533 4531 4530 4529 4530 4529 4530 4529 4529 4527 4526 4527 4528 4525 4526 4526 4525 4524 4522 4523 4526 4522 4522 4523 4523 4521 4521 4520 4521 4522 4520 4520 4526 4521 4520 4522 4522 4525 4522 4521 4520 4520 4521 4520 4522 4520 4517 4519 4518 4519 4520 4518 4517 4516 4517 4515 4514 4517 4516 4518 4514 4514 4514 4514 4514 4512 4516 4513 4513 4513 4511 4513 4512 4513 4511 4510 4509 4513 4512 4509 4509 4510 4509 4507 4507 4508 4506 4507 4507 4508 4506 4507 4506 4507 4506 4506 4504 4503 4503 4503 4502 4503 4502 4505 4500 4503 4511 4520 4525 4530 4533 4540 4544 4547 4550 4555 4559 4559 4550 4538 4522 4510 4505 4506 4502 4501 4499 4496 4494 4494 4492 4495 4497 4497 4495 4493 4493 4493 4494 4496 4494 4495 4496 4496 4496 4493 4493 4495 4493 4492 4491 4493 4492 4497 4495 4490 4494 4501 4512 4520 4518 4506 4497 4495 4492 4492 4492 4492 4491 4489 4487 4486 4483 4482 4482 4483 4482 4483 4482 4483 4484 4485 4484 4481 4481 4481 4480 4485 4483 4481 4480 4479 4480 4481 4482 4483 4483 4485 4485 4483 4481 4480 4478 4476 4476 4476 4476 4478 4478 4476 4478 4478 4477 4478 4476 4475 4475 4473 4477 4475 4474 4474 4475 4474 4474 4473 4473 4473 4473 4472 4470 4471 4473 4473 4471 4470 4472 4472 4471 4471 4469 4472 4471 4473 4471 4472 4472 4468 4470 4468 4467 4468 4468 4467 4467 4466 4464 4465 4465 4465 4466 4468 4465 4466 4464 4465 4464 4464 4465 4463 4464 4464 4463 4465 4463 4464 4466 4466 4465 4464 4463 4464 4465 4463 4469 4473 4476 4478 4477 4478 4479 4479 4475 4471 4466 4462 4463 4462 4463 4464 4461 4464 4463 4463 4463 4463 4461 4461 4462 4464 4460 4461 4464 4460 4462 4463 4463 4462 4461 4463 4462 4460 4461 4458 4459 4459 4462 4460 4459 4459 4457 4458 4459 4458 4457 4457 4457 4457 4456 4454 4455 4451 4451 4450 4450 4448 4451 4452 4451 4450 4452 4452 4451 4449 4451 4451 4451 4452 4451 4448 4447 4450 4449 4448 4447 4447 4446 4448 4449 4448 4448 4446 4449 4449 4450 4450 4450 4449 4444 4440 4441 4440 4441 4440 4438 4437 4435 4434 4433 4433 4431 4429 4430 4429 4425 4424 4425 4428 4429 4430 4429 4428 4428 4425 4424 4425 4429 4432 4427 4424 4424 4424 4427 4428 4427 4426 4427 4428 4427 4426 4428 4425 4424 4424 4424 4424 4424 4424 4424 4424 4424 4424 4424 4424 4424 4424 4424 4424 4424 4424 4424 4424 4424 4424 4424 4424 4424 4424 4424 4424 4424 4424 4424 4424 4424 4424 4424 4424 4424 4424 4424 4424 4424 4424 4424 4424 4424 4424 4424 4424 4424 4424 4424 4424 4424 4424 4424 4424 4424 4424 4424 4424 4424 4424 4424 4424 4424 4424 4424 4424 4424 4424 4424 4424 4424 4424 4424 4424 4424 4424 4424 4424 4424 4424 4424 4424 4424 4424 4424 4424 4424 4424 4424 4424 4424 4424 4424 4424 4424 4424 4424 4424 4424 4424 4424 4424 4424 4424 4424 4424
4656 4646 4636 4630 4624 4615 4608 4602 4595 4585 4581 4577 4578 4578 4578 4578 4578 4574 4573 4571 4572 4571 4572 4571 4573 4575 4573 4570 4570 4568 4567 4560 4551 4550 4550 4549 4549 4549 4547 4547 4548 4548 4548 4547 4547 4546 4545 4545 4547 4545 4545 4545 4547 4548 4549 4547 4548 4548 4551 4549 4548 4545 4538 4533 4532 4532 4533 4534 4531 4529 4530 4529 4529 4529 4530 4529 4527 4527 4525 4526 4526 4527 4526 4525 4525 4523 4523 4526 4524 4524 4522 4523 4522 4520 4521 4524 4521 4523 4521 4522 4523 4522 4520 4520 4523 4523 4521 4522 4519 4519 4520 4521 4520 4520 4518 4520 4517 4519 4517 4517 4518 4520 4520 4515 4516 4519 4518 4517 4516 4517 4516 4515 4511 4512 4513 4512 4513 4514 4515 4511 4509 4513 4512 4511 4510 4511 4514 4511 4513 4512 4512 4509 4506 4506 4509 4509 4507 4505 4506 4506 4505 4504 4507 4506 4504 4503 4505 4506 4504 4501 4504 4500 4500 4509 4520 4524 4526 4530 4535 4537 4541 4543 4546 4551 4554 4550 4530 4522 4508 4501 4502 4501 4502 4502 4499 4497 4495 4500 4497 4496 4497 4503 4500 4496 4494 4495 4496 4495 4494 4493 4490 4487 4490 4494 4494 4494 4493 4492 4491 4492 4495 4494 4492 4493 4499 4512 4513 4505 4496 4494 4492 4491 4490 4491 4489 4489 4488 4487 4486 4482 4483 4482 4480 4482 4485 4484 4481 4480 4485 4485 4484 4481 4482 4483 4484 4480 4479 4480 4482 4481 4483 4483 4481 4484 4483 4485 4479 4482 4482 4481 4477 4478 4475 4478 4479 4480 4478 4479 4477 4476 4476 4476 4474 4474 4476 4475 4474 4476 4474 4476 4474 4472 4474 4474 4473 4473 4473 4471 4471 4474 4472 4473 4471 4472 4472 4473 4472 4469 4470 4471 4471 4471 4472 4475 4473 4469 4469 4467 4468 4467 4467 4468 4468 4465 4464 4464 4461 4463 4467 4467 4466 4464 4465 4465 4465 4465 4464 4465 4464 4463 4463 4463 4463 4465 4467 4465 4465 4463 4463 4463 4466 4471 4474 4476 4479 4478 4479 4476 4472 4467 4465 4462 4463 4463 4463 4462 4462 4462 4461 4462 4462 4463 4461 4461 4461 4461 4461 4463 4462 4459 4460 4463 4462 4461 4458 4457 4459 4459 4462 4462 4460 4462 4462 4459 4459 4460 4458 4458 4459 4458 4456 4458 4456 4455 4454 4457 4456 4453 4453 4450 4452 4451 4451 4449 4451 4449 4449 4451 4451 4452 4450 4452 4452 4451 4450 4450 4448 4450 4448 4448 4448 4447 4447 4445 4446 4445 4448 4450 4450 4453 4449 4451 4451 4448 4446 4445 4443 4442 4441 4441 4441 4439 4437 4436 4437 4433 4432 4431 4431 4431 4430 4427 4428 4427 4430 4430 4431 4429 4428 4427 4425 4425 4424 4425 4426 4427 4424 4424 4425 4425 4425 4425 4424 4426 4427 4428 4426 4426 4424 4424 4424 4424 4424 4424 4424 4424 4424 4424 4424 4424 4424 4424 4424 4424 4424 4424 4424 4424 4424 4424 4424 4424 4424 4424 4424 4424 4424 4424 4424 4424 4424 4424 4424 4424 4424 4424 4424 4424 4424 4424 4424 4424 4424 4424 4424 4424 4424 4424 4424 4424 4424 4424 4424 4424 4424 4424 4424 4424 4424 4424 4424 4424 4424 4424 4424 4424 4424 4424 4424 4424 4424 4424 4424 4424 4424 4424 4424 4424 4424 4424 4424 4424 4424 4424 4424 4424 4424 4424 4424 4424 4424 4424 4424 4424 4424 4424 4424 4424 4424 4424 4424 4424 4424 4424 4424 4424 4424
4650 4643 4634 4626 4618 4610 4603 4599 4593 4588 4583 4581 4579 4577 4577 4575 4577 4578 4574 4573 4574 4574 4573 4574 4574 4571 4570 4570 4569 4567 4557 4553 4552 4551 4550 4550 4550 4549 4550 4551 4550 4551 4549 4548 4547 4547 4548 4547 4547 4546 4546 4549 4552 4552 4553 4550 4550 4552 4552 4549 4548 4544 4534 4533 4533 4533 4533 4533 4530 4530 4531 4531 4532 4530 4530 4530 4529 4530 4528 4526 4527 4527 4526 4526 4524 4525 4526 4525 4525 4523 4523 4520 4521 4523 4525 4524 4522 4522 4522 4521 4523 4524 4524 4520 4521 4522 4520 4520 4520 4520 4519 4519 4519 4521 4519 4519 4519 4520 4519 4517 4518 4520 4520 4519 4519 4518 4519 4517 4516 4516 4514 4513 4511 4511 4513 4512 4513 4514 4515 4510 4510 4512 4511 4511 4510 4510 4511 4509 4512 4510 4511 4508 4506 4504 4507 4508 4508 4505 4508 4508 4508 4504 4505 4508 4506 4504 4502 4505 4506 4503 4502 4502 4499 4505 4513 4518 4522 4526 4527 4532 4536 4539 4540 4545 4548 4549 4535 4523 4515 4504 4500 4503 4501 4498 4497 4498 4497 4500 4496 4498 4498 4500 4501 4495 4498 4497 4494 4493 4492 4493 4491 4490 4492 4495 4496 4496 4493 4493 4490 4489 4493 4492 4494 4495 4501 4508 4503 4496 4491 4493 4491 4491 4491 4491 4489 4488 4484 4487 4484 4484 4482 4484 4484 4484 4481 4484 4484 4482 4483 4484 4482 4484 4482 4484 4482 4481 4481 4483 4481 4480 4481 4481 4479 4482 4484 4484 4482 4480 4481 4480 4478 4480 4477 4479 4480 4480 4477 4477 4477 4476 4475 4475 4475 4475 4475 4476 4474 4475 4474 4475 4474 4475 4476 4475 4471 4475 4475 4473 4472 4472 4472 4471 4472 4471 4472 4473 4472 4471 4471 4470 4470 4472 4470 4472 4473 4472 4471 4469 4469 4467 4467 4468 4466 4467 4464 4463 4461 4463 4465 4462 4462 4464 4465 4465 4467 4466 4464 4465 4464 4464 4462 4462 4463 4466 4465 4465 4465 4465 4463 4465 4464 4471 4476 4475 4477 4476 4476 4470 4467 4465 4464 4463 4462 4463 4462 4461 4461 4465 4463 4463 4464 4463 4462 4461 4463 4462 4460 4461 4460 4461 4460 4460 4460 4459 4458 4458 4458 4457 4459 4458 4460 4461 4459 4461 4459 4459 4459 4458 4456 4458 4457 4454 4453 4455 4453 4452 4455 4453 4453 4452 4449 4451 4452 4451 4449 4451 4452 4451 4452 4451 4450 4450 4448 4448 4448 4449 4451 4447 4448 4452 4449 4448 4447 4445 4444 4446 4446 4448 4449 4448 4450 4451 4451 4449 4447 4444 4442 4440 4438 4442 4443 4443 4437 4436 4431 4429 4429 4431 4430 4430 4429 4430 4430 4428 4429 4426 4424 4430 4430 4425 4425 4424 4424 4424 4426 4426 4425 4425 4426 4427 4426 4428 4427 4426 4425 4426 4424 4424 4424 4424 4424 4424 4424 4424 4424 4424 4424 4424 4424 4424 4424 4424 4424 4424 4424 4424 4424 4424 4424 4424 4424 4424 4424 4424 4424 4424 4424 4424 4424 4424 4424 4424 4424 4424 4424 4424 4424 4424 4424 4424 4424 4424 4424 4424 4424 4424 4424 4424 4424 4424 4424 4424 4424 4424 4424 4424 4424 4424 4424 4424 4424 4424 4424 4424 4424 4424 4424 4424 4424 4424 4424 4424 4424 4424 4424 4424 4424 4424 4424 4424 4424 4424 4424 4424 4424 4424 4424 4424 4424 4424 4424 4424 4424 4424 4424 4424 4424 4424 4424 4424 4424 4424 4424 4424 4424 4424 4424
4641 4635 4627 4622 4614 4608 4601 4597 4592 4586 4583 4582 4583 4581 4576 4577 4577 4575 4575 4574 4574 4576 4576 4574 4573 4571 4571 4570 4570 4564 4555 4554 4553 4553 4553 4552 4550 4551 4553 4553 4551 4550 4551 4548 4548 4549 4549 4548 4548 4548 4547 4551 4553 4555 4557 4554 4554 4552 4550 4548 4545 4543 4535 4534 4532 4533 4534 4532 4530 4531 4533 4531 4531 4530 4529 4529 4530 4529 4529 4528 4529 4529 4527 4526 4526 4525 4525 4525 4526 4523 4522 4522 4526 4523 4523 4524 4523 4522 4523 4524 4522 4523 4521 4522 4521 4522 4520 4523 4524 4522 4520 4524 4520 4521 4519 4520 4518 4519 4520 4518 4521 4520 4519 4520 4519 4518 4516 4517 4517 4514 4515 4512 4513 4514 4514 4514 4512 4512 4512 4514 4514 4511 4509 4511 4512 4511 4512 4512 4511 4511 4511 4512 4511 4509 4507 4509 4506 4507 4507 4508 4507 4506 4506 4505 4508 4509 4504 4503 4502 4504 4502 4501 4499 4497 4501 4508 4516 4521 4523 4527 4529 4534 4537 4538 4541 4544 4535 4526 4513 4501 4502 4498 4500 4497 4498 4499 4497 4497 4496 4497 4495 4495 4498 4497 4497 4496 4494 4491 4492 4493 4491 4493 4492 4494 4495 4495 4494 4493 4490 4492 4493 4492 4494 4496 4502 4501 4499 4494 4492 4492 4491 4490 4489 4489 4488 4489 4485 4486 4483 4483 4484 4485 4485 4487 4485 4485 4482 4481 4486 4484 4481 4482 4481 4481 4482 4481 4483 4484 4482 4481 4481 4479 4478 4481 4482 4483 4483 4480 4479 4481 4479 4481 4479 4479 4479 4479 4477 4475 4478 4477 4475 4476 4475 4474 4473 4475 4475 4475 4475 4474 4473 4475 4474 4473 4473 4474 4475 4474 4472 4471 4472 4474 4474 4473 4473 4472 4470 4473 4470 4471 4472 4473 4471 4470 4470 4472 4470 4470 4470 4466 4467 4467 4468 4466 4467 4467 4468 4467 4468 4470 4466 4468 4465 4466 4465 4463 4464 4467 4466 4467 4467 4464 4464 4463 4463 4464 4466 4465 4465 4464 4469 4472 4477 4476 4473 4471 4466 4464 4463 4465 4465 4463 4463 4463 4461 4462 4464 4463 4464 4464 4467 4464 4464 4463 4463 4462 4461 4461 4462 4460 4459 4459 4460 4459 4459 4462 4457 4455 4458 4459 4456 4457 4457 4458 4457 4456 4456 4458 4457 4458 4457 4455 4456 4456 4456 4452 4452 4451 4450 4451 4447 4448 4448 4450 4450 4453 4454 4451 4450 4451 4449 4449 4449 4450 4450 4448 4450 4449 4450 4452 4448 4452 4448 4446 4446 4445 4445 4445 4446 4444 4448 4449 4449 4447 4445 4444 4441 4438 4437 4440 4441 4439 4434 4434 4433 4430 4431 4430 4430 4431 4428 4428 4428 4429 4428 4427 4427 4426 4427 4426 4427 4423 4424 4426 4426 4425 4426 4427 4426 4424 4427 4427 4426 4425 4426 4426 4426 4424 4424 4424 4424 4424 4424 4424 4424 4424 4424 4424 4424 4424 4424 4424 4424 4424 4424 4424 4424 4424 4424 4424 4424 4424 4424 4424 4424 4424 4424 4424 4424 4424 4424 4424 4424 4424 4424 4424 4424 4424 4424 4424 4424 4424 4424 4424 4424 4424 4424 4424 4424 4424 4424 4424 4424 4424 4424 4424 4424 4424 4424 4424 4424 4424 4424 4424 4424 4424 4424 4424 4424 4424 4424 4424 4424 4424 4424 4424 4424 4424 4424 4424 4424 4424 4424 4424 4424 4424 4424 4424 4424 4424 4424 4424 4424 4424 4424 4424 4424 4424 4424 4424 4424 4424 4424 4424 4424 4424 4424
4639 4632 4626 4618 4612 4607 4602 4596 4592 4588 4585 4584 4583 4582 4581 4579 4579 4576 4575 4574 4576 4577 4576 4576 4574 4571 4571 4574 4570 4558 4555 4554 4554 4555 4555 4552 4552 4555 4555 4553 4551 4551 4552 4551 4551 4550 4550 4549 4550 4553 4552 4553 4553 4553 4554 4553 4551 4548 4548 4546 4544 4538 4535 4535 4534 4535 4534 4532 4531 4531 4533 4532 4531 4531 4531 4532 4530 4530 4529 4528 4528 4529 4527 4526 4526 4526 4528 4525 4524 4524 4523 4524 4524 4525 4525 4526 4526 4527 4526 4522 4521 4522 4524 4525 4525 4522 4521 4521 4522 4520 4519 4521 4520 4522 4522 4518 4520 4520 4520 4519 4521 4519 4519 4515 4515 4514 4517 4513 4514 4514 4512 4514 4514 4513 4515 4515 4515 4513 4512 4513 4511 4513 4514 4513 4511 4508 4512 4513 4515 4514 4511 4514 4513 4513 4508 4511 4507 4506 4505 4507 4506 4507 4509 4506 4508 4508 4508 4507 4506 4506 4505 4502 4500 4499 4499 4498 4510 4513 4518 4522 4525 4528 4530 4533 4534 4535 4529 4517 4508 4501 4499 4497 4499 4496 4496 4496 4499 4500 4500 4496 4496 4495 4496 4493 4494 4495 4494 4495 4500 4495 4494 4494 4492 4495 4494 4493 4492 4491 4490 4491 4491 4492 4493 4498 4499 4496 4496 4493 4491 4492 4491 4490 4487 4487 4486 4485 4484 4484 4483 4484 4486 4487 4487 4490 4488 4487 4488 4484 4483 4479 4482 4483 4480 4478 4482 4484 4480 4479 4479 4480 4482 4479 4479 4482 4481 4484 4486 4481 4480 4480 4478 4481 4477 4476 4479 4479 4479 4475 4477 4478 4478 4478 4475 4474 4474 4476 4476 4476 4476 4474 4472 4472 4473 4475 4472 4474 4475 4474 4474 4472 4472 4473 4473 4473 4473 4472 4470 4471 4470 4470 4471 4472 4472 4472 4471 4472 4471 4472 4471 4470 4469 4468 4469 4470 4470 4468 4468 4467 4467 4469 4468 4469 4467 4467 4466 4465 4466 4468 4464 4462 4467 4465 4466 4466 4464 4462 4464 4464 4465 4465 4471 4473 4473 4470 4468 4464 4465 4463 4465 4466 4463 4464 4464 4464 4462 4464 4464 4464 4463 4463 4465 4465 4462 4462 4464 4463 4461 4462 4461 4461 4461 4462 4461 4461 4461 4460 4458 4458 4458 4458 4455 4456 4455 4454 4456 4454 4455 4457 4455 4457 4458 4455 4457 4455 4454 4452 4452 4451 4450 4450 4451 4452 4451 4449 4451 4450 4452 4452 4450 4452 4452 4449 4449 4450 4449 4450 4451 4449 4448 4450 4449 4448 4451 4443 4443 4445 4443 4444 4442 4445 4447 4448 4448 4448 4448 4444 4443 4443 4441 4439 4438 4437 4434 4433 4432 4432 4431 4429 4430 4435 4433 4431 4428 4431 4431 4427 4426 4426 4428 4428 4427 4426 4425 4425 4426 4425 4425 4428 4425 4424 4427 4427 4425 4423 4427 4425 4428 4424 4424 4424 4424 4424 4424 4424 4424 4424 4424 4424 4424 4424 4424 4424 4424 4424 4424 4424 4424 4424 4424 4424 4424 4424 4424 4424 4424 4424 4424 4424 4424 4424 4424 4424 4424 4424 4424 4424 4424 4424 4424 4424 4424 4424 4424 4424 4424 4424 4424 4424 4424 4424 4424 4424 4424 4424 4424 4424 4424 4424 4424 4424 4424 4424 4424 4424 4424 4424 4424 4424 4424 4424 4424 4424 4424 4424 4424 4424 4424 4424 4424 4424 4424 4424 4424 4424 4424 4424 4424 4424 4424 4424 4424 4424 4424 4424 4424 4424 4424 4424 4424 4424 4424 4424 4424 4424 4424 4424 4424
4636 4630 4626 4618 4610 4605 4601 4595 4591 4589 4588 4585 4584 4583 4582 4579 4579 4575 4576 4579 4577 4579 4577 4576 4574 4573 4572 4573 4566 4558 4556 4556 4555 4556 4556 4555 4554 4556 4555 4553 4552 4551 4552 4551 4551 4551 4550 4551 4555 4556 4557 4553 4555 4552 4551 4550 4551 4551 4548 4545 4540 4539 4537 4535 4534 4533 4535 4533 4532 4533 4534 4534 4532 4532 4533 4531 4531 4530 4530 4529 4526 4528 4528 4526 4528 4525 4525 4524 4523 4525 4524 4525 4525 4526 4526 4525 4524 4522 4524 4522 4524 4524 4526 4524 4522 4521 4522 4524 4524 4522 4522 4522 4521 4522 4521 4520 4521 4521 4517 4520 4520 4519 4520 4518 4518 4517 4519 4519 4514 4513 4516 4516 4516 4513 4515 4515 4515 4514 4515 4513 4512 4512 4513 4512 4513 4511 4513 4513 4514 4515 4514 4514 4515 4510 4509 4511 4511 4509 4509 4506 4506 4509 4510 4508 4511 4508 4508 4505 4504 4505 4505 4501 4503 4502 4499 4500 4501 4503 4510 4515 4519 4521 4520 4521 4520 4525 4522 4513 4508 4504 4498 4498 4499 4498 4499 4499 4498 4500 4498 4499 4497 4496 4491 4493 4495 4496 4496 4493 4495 4495 4495 4496 4493 4494 4494 4492 4492 4492 4491 4492 4491 4491 4492 4496 4495 4493 4492 4491 4489 4489 4489 4490 4486 4487 4486 4484 4484 4485 4487 4487 4488 4487 4484 4486 4484 4484 4488 4485 4486 4485 4483 4482 4482 4481 4483 4480 4479 4479 4478 4480 4482 4482 4478 4478 4479 4481 4483 4482 4481 4481 4478 4478 4477 4478 4479 4480 4477 4475 4474 4473 4476 4474 4478 4477 4476 4475 4478 4477 4476 4474 4473 4475 4475 4477 4475 4475 4474 4470 4471 4471 4472 4472 4472 4472 4471 4472 4471 4471 4472 4470 4469 4472 4470 4472 4470 4471 4470 4470 4469 4470 4470 4470 4472 4469 4468 4468 4469 4470 4470 4470 4470 4469 4469 4468 4468 4467 4470 4468 4466 4465 4468 4467 4467 4464 4465 4463 4467 4468 4465 4466 4470 4473 4471 4467 4467 4464 4465 4464 4465 4465 4466 4466 4466 4466 4464 4464 4464 4464 4467 4464 4463 4464 4466 4464 4463 4462 4463 4464 4462 4462 4460 4462 4462 4461 4462 4464 4462 4462 4461 4459 4456 4456 4456 4456 4456 4455 4456 4458 4457 4459 4457 4456 4457 4455 4452 4452 4452 4452 4452 4450 4451 4452 4450 4449 4450 4451 4449 4448 4445 4447 4447 4449 4448 4448 4450 4451 4451 4449 4447 4451 4452 4451 4451 4447 4446 4446 4443 4442 4443 4445 4445 4448 4447 4446 4445 4445 4444 4445 4442 4439 4438 4436 4434 4432 4433 4432 4432 4430 4431 4431 4430 4431 4431 4431 4430 4427 4427 4426 4426 4427 4428 4426 4426 4428 4426 4427 4426 4426 4428 4428 4422 4424 4425 4420 4423 4424 4425 4425 4424 4424 4424 4424 4424 4424 4424 4424 4424 4424 4424 4424 4424 4424 4424 4424 4424 4424 4424 4424 4424 4424 4424 4424 4424 4424 4424 4424 4424 4424 4424 4424 4424 4424 4424 4424 4424 4424 4424 4424 4424 4424 4424 4424 4424 4424 4424 4424 4424 4424 4424 4424 4424 4424 4424 4424 4424 4424 4424 4424 4424 4424 4424 4424 4424 4424 4424 4424 4424 4424 4424 4424 4424 4424 4424 4424 4424 4424 4424 4424 4424 4424 4424 4424 4424 4424 4424 4424 4424 4424 4424 4424 4424 4424 4424 4424 4424 4424 4424 4424 4424 4424 4424 4424 4424 4424 4424 4424 4424
4631 4626 4621 4614 4608 4604 4599 4597 4593 4587 4588 4585 4586 4586 4581 4581 4578 4578 4578 4578 4578 4579 4577 4574 4575 4574 4572 4573 4563 4558 4558 4557 4557 4557 4558 4557 4557 4556 4554 4555 4554 4552 4553 4553 4552 4552 4551 4552 4557 4558 4557 4555 4554 4554 4553 4550 4550 4547 4541 4541 4539 4538 4537 4536 4536 4535 4533 4534 4534 4533 4534 4532 4532 4532 4534 4532 4530 4532 4532 4529 4529 4530 4529 4527 4527 4526 4524 4524 4525 4525 4525 4526 4528 4526 4524 4525 4524 4523 4524 4524 4526 4525 4523 4522 4523 4522 4524 4527 4524 4521 4520 4521 4520 4522 4522 4522 4520 4520 4518 4521 4520 4518 4521 4520 4518 4523 4526 4520 4518 4519 4517 4516 4515 4514 4515 4516 4515 4514 4514 4514 4514 4513 4513 4513 4511 4509 4511 4512 4511 4513 4513 4511 4510 4511 4511 4509 4508 4505 4506 4508 4506 4507 4509 4510 4509 4507 4504 4505 4507 4501 4503 4503 4503 4502 4499 4499 4499 4501 4503 4506 4510 4513 4512 4510 4511 4519 4517 4507 4504 4502 4499 4497 4494 4495 4494 4495 4497 4497 4497 4498 4496 4494 4492 4493 4495 4496 4496 4493 4491 4493 4495 4496 4495 4492 4493 4492 4494 4496 4493 4491 4489 4493 4492 4492 4492 4492 4491 4489 4488 4488 4487 4488 4486 4486 4485 4487 4487 4488 4492 4490 4488 4490 4488 4488 4489 4486 4482 4483 4485 4483 4485 4484 4483 4483 4483 4482 4482 4481 4482 4480 4482 4480 4479 4477 4478 4478 4477 4478 4478 4480 4477 4478 4480 4480 4476 4477 4478 4478 4476 4476 4477 4477 4479 4475 4475 4475 4476 4478 4477 4473 4475 4475 4474 4475 4475 4476 4474 4471 4472 4474 4475 4473 4473 4471 4471 4471 4473 4471 4473 4471 4471 4471 4470 4472 4470 4471 4470 4469 4469 4470 4470 4471 4471 4469 4470 4469 4469 4468 4470 4470 4469 4469 4469 4469 4469 4468 4468 4468 4469 4467 4468 4468 4467 4467 4468 4466 4466 4466 4466 4467 4468 4466 4469 4464 4463 4463 4464 4464 4464 4465 4468 4466 4466 4465 4465 4466 4462 4464 4469 4465 4464 4465 4465 4463 4464 4463 4465 4464 4463 4463 4462 4462 4461 4463 4462 4462 4463 4462 4461 4463 4460 4459 4459 4459 4459 4458 4456 4460 4460 4459 4461 4460 4458 4455 4453 4454 4453 4454 4452 4452 4451 4451 4452 4453 4451 4451 4449 4450 4448 4448 4446 4449 4449 4448 4449 4447 4447 4448 4446 4447 4447 4449 4448 4446 4446 4444 4440 4442 4444 4444 4446 4448 4447 4446 4447 4446 4444 4443 4441 4440 4439 4436 4436 4434 4433 4431 4431 4432 4430 4426 4429 4429 4429 4424 4424 4427 4427 4427 4428 4427 4428 4427 4429 4426 4424 4426 4425 4422 4423 4424 4423 4424 4425 4424 4425 4424 4424 4423 4424 4424 4424 4424 4424 4424 4424 4424 4424 4424 4424 4424 4424 4424 4424 4424 4424 4424 4424 4424 4424 4424 4424 4424 4424 4424 4424 4424 4424 4424 4424 4424 4424 4424 4424 4424 4424 4424 4424 4424 4424 4424 4424 4424 4424 4424 4424 4424 4424 4424 4424 4424 4424 4424 4424 4424 4424 4424 4424 4424 4424 4424 4424 4424 4424 4424 4424 4424 4424 4424 4424 4424 4424 4424 4424 4424 4424 4424 4424 4424 4424 4424 4424 4424 4424 4424 4424 4424 4424 4424 4424 4424 4424 4424 4424 4424 4424 4424 4424 4424 4424 4424 4424 4424 4424 4424 4424 4424 4424
4629 4624 4617 4612 4607 4603 4598 4596 4592 4591 4589 4586 4586 4586 4583 4582 4579 4584 4579 4579 4577 4577 4575 4576 4576 4573 4575 4571 4560 4559 4561 4559 4558 4559 4559 4558 4557 4556 4556 4555 4555 4554 4553 4553 4552 4552 4552 4554 4556 4561 4558 4555 4554 4553 4552 4549 4548 4540 4540 4539 4538 4538 4537 4537 4537 4537 4536 4535 4535 4535 4534 4534 4532 4533 4534 4533 4531 4532 4531 4531 4530 4531 4528 4526 4526 4527 4524 4524 4525 4526 4524 4525 4526 4525 4524 4525 4525 4523 4524 4526 4525 4525 4523 4523 4525 4525 4525 4526 4526 4525 4524 4524 4524 4522 4523 4521 4520 4523 4523 4519 4522 4521 4518 4518 4517 4523 4523 4519 4520 4519 4517 4514 4517 4515 4514 4516 4517 4513 4515 4516 4516 4515 4515 4517 4517 4512 4514 4514 4508 4511 4513 4512 4511 4510 4511 4512 4509 4510 4506 4506 4507 4507 4505 4506 4506 4507 4505 4506 4504 4502 4503 4501 4501 4499 4497 4498 4501 4500 4499 4502 4502 4502 4500 4504 4507 4513 4512 4506 4498 4499 4500 4495 4493 4495 4495 4495 4497 4494 4493 4498 4497 4497 4497 4494 4496 4499 4496 4498 4492 4492 4494 4497 4495 4493 4489 4489 4491 4491 4493 4492 4492 4493 4489 4490 4488 4487 4484 4486 4487 4488 4488 4487 4486 4487 4489 4492 4491 4490 4490 4493 4489 4489 4491 4491 4486 4487 4485 4483 4486 4485 4484 4482 4479 4483 4485 4484 4483 4480 4481 4478 4482 4480 4479 4480 4482 4478 4477 4479 4478 4479 4476 4475 4476 4476 4476 4477 4478 4475 4475 4477 4478 4478 4476 4475 4474 4474 4477 4476 4476 4475 4475 4474 4473 4472 4474 4474 4474 4472 4472 4471 4471 4472 4473 4470 4471 4471 4473 4473 4474 4473 4472 4471 4471 4473 4472 4470 4470 4470 4471 4471 4470 4472 4472 4471 4471 4470 4469 4469 4469 4470 4470 4469 4467 4468 4469 4470 4469 4469 4469 4469 4467 4468 4465 4468 4467 4468 4466 4467 4470 4467 4464 4463 4465 4464 4464 4465 4465 4466 4467 4468 4467 4468 4464 4465 4465 4468 4464 4463 4467 4464 4461 4464 4465 4464 4464 4463 4464 4464 4464 4466 4465 4465 4463 4464 4462 4462 4463 4459 4460 4465 4461 4460 4461 4460 4461 4462 4462 4462 4462 4459 4457 4456 4457 4454 4453 4452 4454 4457 4453 4453 4450 4449 4450 4450 4449 4449 4450 4447 4448 4449 4449 4449 4448 4448 4447 4446 4446 4446 4448 4448 4448 4446 4444 4443 4445 4443 4442 4445 4445 4445 4445 4447 4447 4447 4449 4448 4446 4444 4443 4440 4440 4437 4437 4437 4433 4431 4433 4433 4433 4431 4431 4431 4427 4426 4428 4428 4425 4427 4430 4428 4425 4427 4426 4424 4426 4427 4428 4426 4422 4425 4424 4422 4424 4423 4422 4423 4424 4423 4424 4424 4424 4424 4424 4424 4424 4424 4424 4424 4424 4424 4424 4424 4424 4424 4424 4424 4424 4424 4424 4424 4424 4424 4424 4424 4424 4424 4424 4424 4424 4424 4424 4424 4424 4424 4424 4424 4424 4424 4424 4424 4424 4424 4424 4424 4424 4424 4424 4424 4424 4424 4424 4424 4424 4424 4424 4424 4424 4424 4424 4424 4424 4424 4424 4424 4424 4424 4424 4424 4424 4424 4424 4424 4424 4424 4424 4424 4424 4424 4424 4424 4424 4424 4424 4424 4424 4424 4424 4424 4424 4424 4424 4424 4424 4424 4424 4424 4424 4424 4424 4424 4424 4424 4424 4424 4424 4424 4424
4623 4618 4612 4606 4604 4601 4599 4596 4594 4592 4590 4589 4588 4587 4586 4583 4584 4582 4581 4579 4583 4582 4578 4577 4576 4576 4575 4568 4561 4560 4560 4559 4560 4560 4561 4560 4560 4558 4557 4556 4555 4555 4554 4554 4553 4553 4553 4553 4557 4558 4557 4556 4556 4553 4552 4549 4543 4541 4541 4541 4540 4540 4537 4537 4538 4538 4537 4536 4536 4535 4535 4534 4533 4535 4533 4532 4532 4531 4532 4531 4530 4532 4529 4529 4527 4527 4527 4527 4525 4526 4527 4530 4528 4526 4523 4525 4526 4523 4526 4526 4524 4522 4525 4524 4526 4526 4527 4527 4525 4525 4526 4527 4525 4521 4521 4522 4522 4520 4522 4520 4520 4523 4521 4519 4520 4520 4519 4519 4519 4517 4516 4514 4516 4518 4517 4517 4517 4516 4515 4514 4517 4515 4515 4516 4515 4511 4512 4514 4511 4510 4513 4513 4511 4511 4511 4513 4512 4510 4508 4512 4509 4510 4507 4501 4505 4505 4503 4503 4505 4503 4504 4502 4500 4500 4502 4499 4501 4500 4499 4499 4496 4497 4497 4500 4505 4508 4504 4503 4497 4496 4497 4494 4495 4495 4496 4497 4495 4494 4494 4496 4497 4501 4495 4497 4498 4498 4496 4495 4496 4498 4501 4497 4495 4493 4493 4491 4494 4489 4491 4492 4494 4494 4487 4489 4485 4485 4485 4488 4489 4487 4486 4488 4487 4488 4489 4492 4494 4492 4491 4490 4487 4493 4491 4487 4487 4485 4484 4486 4480 4484 4486 4486 4483 4488 4485 4482 4485 4480 4478 4477 4477 4482 4479 4478 4481 4481 4480 4479 4478 4478 4477 4476 4476 4475 4475 4474 4478 4477 4474 4475 4476 4478 4475 4473 4474 4475 4477 4476 4474 4473 4474 4474 4475 4476 4476 4476 4474 4473 4470 4469 4475 4473 4474 4472 4471 4470 4471 4471 4471 4473 4472 4473 4471 4470 4471 4471 4470 4471 4472 4471 4470 4470 4470 4470 4470 4470 4469 4470 4469 4468 4468 4468 4470 4468 4469 4469 4467 4467 4469 4470 4467 4467 4468 4470 4470 4469 4467 4470 4468 4468 4463 4465 4463 4464 4463 4465 4464 4465 4466 4466 4464 4464 4465 4463 4466 4467 4465 4465 4465 4463 4465 4465 4466 4464 4464 4464 4465 4464 4461 4462 4462 4462 4464 4464 4463 4461 4462 4461 4461 4461 4458 4460 4459 4459 4462 4460 4458 4458 4461 4459 4455 4455 4458 4456 4454 4453 4454 4459 4452 4452 4451 4451 4450 4451 4452 4452 4449 4451 4450 4450 4450 4450 4447 4448 4449 4448 4449 4448 4447 4447 4447 4445 4444 4446 4445 4445 4447 4448 4445 4440 4442 4442 4445 4443 4443 4445 4445 4445 4442 4441 4442 4437 4438 4435 4433 4434 4435 4433 4431 4430 4431 4430 4429 4429 4429 4428 4428 4429 4429 4424 4428 4427 4426 4426 4426 4426 4426 4427 4427 4427 4424 4422 4425 4425 4423 4425 4426 4428 4424 4424 4424 4424 4424 4424 4424 4424 4424 4424 4424 4424 4424 4424 4424 4424 4424 4424 4424 4424 4424 4424 4424 4424 4424 4424 4424 4424 4424 4424 4424 4424 4424 4424 4424 4424 4424 4424 4424 4424 4424 4424 4424 4424 4424 4424 4424 4424 4424 4424 4424 4424 4424 4424 4424 4424 4424 4424 4424 4424 4424 4424 4424 4424 4424 4424 4424 4424 4424 4424 4424 4424 4424 4424 4424 4424 4424 4424 4424 4424 4424 4424 4424 4424 4424 4424 4424 4424 4424 4424 4424 4424 4424 4424 4424 4424 4424 4424 4424 4424 4424 4424 4424 4424 4424 4424 4424 4424 4424
4618 4613 4609 4607 4606 4602 4599 4597 4595 4594 4593 4593 4590 4586 4585 4585 4584 4583 4582 4580 4581 4580 4580 4578 4578 4577 4575 4565 4563 4563 4562 4561 4561 4561 4561 4561 4559 4558 4559 4558 4557 4557 4556 4556 4555 4556 4556 4556 4559 4556 4558 4557 4555 4553 4551 4546 4541 4543 4543 4541 4541 4541 4540 4539 4538 4538 4537 4536 4537 4538 4538 4535 4533 4532 4532 4533 4532 4532 4531 4530 4530 4530 4529 4529 4528 4526 4526 4528 4527 4527 4529 4532 4529 4524 4525 4527 4524 4527 4526 4527 4524 4525 4525 4526 4528 4528 4527 4525 4526 4523 4524 4525 4523 4522 4523 4523 4523 4521 4522 4523 4522 4520 4518 4519 4522 4520 4520 4520 4516 4516 4515 4516 4516 4516 4517 4517 4517 4516 4516 4516 4516 4515 4514 4515 4515 4515 4513 4512 4512 4516 4513 4511 4513 4513 4512 4511 4512 4511 4510 4511 4510 4510 4507 4507 4506 4505 4505 4504 4505 4504 4502 4503 4501 4499 4501 4500 4499 4498 4499 4498 4499 4498 4497 4496 4499 4501 4500 4504 4500 4498 4497 4494 4495 4496 4498 4495 4494 4496 4494 4495 4497 4498 4496 4494 4496 4495 4495 4496 4497 4496 4499 4491 4492 4490 4491 4494 4495 4495 4493 4490 4490 4492 4492 4487 4485 4487 4487 4492 4490 4491 4490 4485 4488 4489 4488 4491 4493 4491 4492 4489 4487 4490 4492 4487 4487 4484 4485 4487 4483 4484 4485 4486 4479 4483 4476 4480 4483 4480 4483 4480 4480 4482 4483 4481 4481 4480 4479 4480 4478 4478 4478 4477 4476 4480 4478 4474 4475 4479 4478 4475 4475 4477 4473 4473 4477 4475 4476 4475 4475 4474 4475 4472 4471 4472 4473 4474 4472 4473 4475 4472 4472 4472 4469 4471 4473 4472 4470 4469 4473 4473 4473 4476 4475 4469 4468 4469 4469 4469 4471 4470 4470 4470 4469 4470 4471 4471 4470 4470 4471 4469 4469 4469 4470 4469 4468 4468 4465 4465 4467 4468 4467 4467 4466 4468 4469 4467 4466 4468 4464 4467 4465 4464 4465 4465 4464 4466 4466 4464 4462 4464 4463 4466 4465 4465 4464 4465 4463 4466 4466 4466 4466 4465 4465 4466 4463 4464 4465 4464 4464 4462 4463 4465 4465 4464 4461 4460 4462 4465 4463 4462 4461 4459 4458 4458 4460 4459 4460 4459 4460 4458 4457 4456 4456 4454 4454 4454 4453 4454 4452 4454 4456 4452 4451 4450 4451 4450 4449 4449 4450 4451 4448 4449 4448 4449 4449 4449 4448 4445 4446 4446 4447 4444 4445 4446 4448 4445 4445 4445 4443 4443 4442 4440 4442 4441 4441 4443 4446 4443 4440 4439 4442 4437 4438 4436 4437 4433 4433 4436 4431 4431 4430 4430 4430 4428 4430 4431 4431 4429 4428 4424 4426 4426 4426 4427 4425 4426 4427 4427 4426 4425 4425 4424 4427 4425 4423 4423 4426 4428 4426 4430 4424 4424 4424 4424 4424 4424 4424 4424 4424 4424 4424 4424 4424 4424 4424 4424 4424 4424 4424 4424 4424 4424 4424 4424 4424 4424 4424 4424 4424 4424 4424 4424 4424 4424 4424 4424 4424 4424 4424 4424 4424 4424 4424 4424 4424 4424 4424 4424 4424 4424 4424 4424 4424 4424 4424 4424 4424 4424 4424 4424 4424 4424 4424 4424 4424 4424 4424 4424 4424 4424 4424 4424 4424 4424 4424 4424 4424 4424 4424 4424 4424 4424 4424 4424 4424 4424 4424 4424 4424 4424 4424 4424 4424 4424 4424 4424 4424 4424 4424 4424 4424 4424 4424 4424 4424 4424 4424
4617 4613 4611 4608 4606 4603 4601 4599 4597 4597 4594 4593 4587 4585 4585 4582 4585 4585 4581 4579 4581 4579 4579 4578 4579 4578 4573 4566 4564 4564 4563 4563 4563 4562 4561 4560 4560 4558 4560 4559 4559 4558 4557 4556 4557 4556 4558 4558 4558 4557 4558 4556 4550 4545 4544 4544 4543 4541 4543 4541 4542 4542 4541 4540 4537 4538 4538 4539 4538 4538 4539 4537 4534 4534 4533 4534 4532 4531 4530 4530 4529 4529 4529 4530 4528 4527 4527 4527 4528 4527 4527 4529 4530 4528 4528 4526 4526 4525 4523 4525 4526 4526 4529 4529 4528 4527 4525 4527 4527 4525 4525 4526 4523 4521 4523 4523 4523 4522 4523 4522 4524 4523 4520 4519 4519 4519 4519 4521 4516 4520 4518 4516 4516 4518 4518 4516 4518 4517 4517 4518 4520 4517 4516 4515 4514 4516 4514 4515 4516 4514 4514 4512 4513 4512 4509 4510 4512 4510 4510 4510 4510 4507 4508 4509 4508 4505 4504 4504 4507 4505 4504 4502 4502 4503 4501 4499 4501 4502 4500 4500 4500 4500 4498 4498 4498 4498 4498 4499 4500 4498 4496 4495 4495 4497 4496 4493 4497 4493 4494 4494 4495 4496 4495 4495 4495 4496 4498 4498 4494 4495 4496 4492 4493 4495 4495 4499 4496 4492 4490 4491 4494 4494 4491 4487 4487 4490 4489 4488 4487 4493 4492 4490 4492 4490 4492 4491 4493 4487 4492 4489 4486 4485 4488 4487 4485 4487 4487 4484 4484 4487 4487 4487 4485 4483 4484 4481 4482 4480 4480 4480 4480 4481 4481 4481 4481 4478 4477 4477 4478 4477 4476 4476 4476 4477 4479 4477 4477 4478 4480 4480 4476 4478 4476 4477 4476 4474 4477 4475 4474 4472 4476 4477 4474 4473 4475 4474 4473 4472 4472 4471 4472 4471 4469 4473 4474 4476 4471 4471 4477 4473 4472 4471 4472 4471 4470 4469 4469 4468 4468 4469 4467 4468 4469 4470 4470 4470 4471 4470 4469 4468 4468 4467 4468 4468 4467 4467 4467 4469 4469 4468 4469 4467 4467 4469 4467 4466 4467 4466 4465 4466 4465 4467 4465 4465 4465 4464 4465 4465 4463 4463 4463 4464 4463 4464 4465 4466 4465 4464 4463 4465 4464 4463 4466 4466 4463 4465 4467 4467 4466 4464 4463 4464 4463 4464 4462 4463 4464 4462 4462 4462 4462 4461 4461 4462 4460 4458 4461 4460 4458 4458 4457 4456 4454 4452 4454 4452 4451 4453 4454 4452 4454 4453 4451 4453 4454 4450 4450 4449 4451 4452 4451 4449 4449 4450 4446 4449 4447 4448 4446 4445 4444 4444 4445 4443 4447 4447 4447 4445 4445 4447 4444 4442 4444 4444 4444 4441 4442 4444 4443 4439 4440 4436 4438 4437 4437 4435 4434 4433 4432 4433 4431 4430 4432 4430 4428 4430 4429 4427 4427 4429 4428 4425 4427 4425 4427 4426 4426 4426 4428 4427 4424 4422 4424 4427 4424 4423 4425 4427 4427 4427 4424 4424 4424 4424 4424 4424 4424 4424 4424 4424 4424 4424 4424 4424 4424 4424 4424 4424 4424 4424 4424 4424 4424 4424 4424 4424 4424 4424 4424 4424 4424 4424 4424 4424 4424 4424 4424 4424 4424 4424 4424 4424 4424 4424 4424 4424 4424 4424 4424 4424 4424 4424 4424 4424 4424 4424 4424 4424 4424 4424 4424 4424 4424 4424 4424 4424 4424 4424 4424 4424 4424 4424 4424 4424 4424 4424 4424 4424 4424 4424 4424 4424 4424 4424 4424 4424 4424 4424 4424 4424 4424 4424 4424 4424 4424 4424 4424 4424 4424 4424 4424 4424 4424 4424 4424 4424 4424
4619 4618 4613 4609 4607 4604 4602 4599 4597 4593 4593 4592 4588 4584 4586 4583 4582 4586 4581 4585 4585 4582 4580 4579 4579 4577 4570 4566 4565 4565 4563 4564 4564 4563 4562 4561 4561 4560 4559 4561 4559 4558 4558 4560 4559 4559 4558 4558 4558 4556 4554 4549 4546 4546 4546 4546 4544 4543 4544 4544 4543 4542 4541 4540 4539 4539 4539 4541 4540 4539 4537 4536 4536 4536 4535 4535 4534 4532 4530 4531 4530 4530 4529 4530 4530 4530 4529 4529 4529 4528 4531 4532 4531 4528 4530 4530 4528 4526 4530 4529 4527 4525 4524 4524 4529 4528 4527 4524 4525 4524 4524 4524 4523 4524 4522 4521 4522 4523 4523 4520 4520 4519 4519 4520 4518 4520 4519 4518 4518 4522 4520 4519 4516 4518 4521 4519 4517 4520 4520 4518 4518 4517 4515 4516 4515 4515 4512 4512 4515 4513 4513 4513 4514 4514 4510 4510 4512 4511 4510 4510 4510 4510 4511 4509 4507 4503 4505 4507 4507 4506 4503 4501 4504 4502 4502 4502 4503 4502 4501 4501 4496 4498 4499 4502 4500 4500 4496 4496 4495 4496 4495 4495 4498 4496 4498 4496 4496 4496 4497 4494 4497 4496 4493 4494 4494 4495 4495 4494 4493 4491 4492 4493 4491 4491 4495 4496 4493 4490 4489 4491 4495 4493 4490 4488 4489 4492 4493 4491 4489 4493 4494 4491 4492 4492 4493 4492 4495 4491 4492 4494 4490 4492 4493 4491 4488 4491 4487 4486 4487 4485 4482 4483 4484 4485 4484 4484 4481 4478 4479 4480 4483 4480 4478 4478 4478 4480 4480 4480 4480 4478 4477 4480 4479 4479 4477 4480 4480 4478 4479 4478 4475 4476 4476 4474 4477 4479 4476 4473 4475 4475 4474 4475 4475 4477 4473 4473 4475 4473 4471 4471 4474 4472 4470 4473 4472 4471 4472 4470 4474 4475 4472 4468 4468 4470 4471 4468 4468 4470 4470 4470 4467 4469 4467 4470 4468 4469 4472 4470 4466 4463 4465 4467 4468 4464 4467 4470 4470 4467 4468 4468 4468 4466 4467 4468 4468 4465 4467 4467 4467 4467 4465 4466 4467 4468 4466 4466 4466 4464 4465 4466 4462 4461 4463 4464 4465 4463 4463 4462 4465 4465 4463 4463 4464 4463 4464 4465 4465 4464 4463 4460 4463 4464 4464 4464 4464 4464 4462 4461 4461 4461 4460 4461 4461 4459 4458 4459 4458 4459 4460 4460 4457 4457 4453 4453 4451 4453 4451 4451 4453 4453 4454 4453 4452 4454 4450 4448 4448 4448 4451 4452 4451 4449 4449 4450 4450 4452 4450 4449 4447 4446 4443 4442 4443 4443 4446 4443 4444 4447 4446 4444 4444 4445 4447 4445 4446 4445 4442 4441 4442 4441 4440 4441 4437 4437 4437 4437 4435 4433 4433 4434 4432 4430 4431 4432 4429 4427 4429 4431 4428 4428 4429 4428 4427 4425 4425 4423 4424 4427 4427 4429 4426 4425 4425 4424 4423 4425 4426 4426 4424 4423 4421 4424 4424 4424 4424 4424 4424 4424 4424 4424 4424 4424 4424 4424 4424 4424 4424 4424 4424 4424 4424 4424 4424 4424 4424 4424 4424 4424 4424 4424 4424 4424 4424 4424 4424 4424 4424 4424 4424 4424 4424 4424 4424 4424 4424 4424 4424 4424 4424 4424 4424 4424 4424 4424 4424 4424 4424 4424 4424 4424 4424 4424 4424 4424 4424 4424 4424 4424 4424 4424 4424 4424 4424 4424 4424 4424 4424 4424 4424 4424 4424 4424 4424 4424 4424 4424 4424 4424 4424 4424 4424 4424 4424 4424 4424 4424 4424 4424 4424 4424 4424 4424 4424 4424 4424 4424 4424
4619 4616 4614 4611 4608 4605 4603 4601 4597 4594 4593 4591 4589 4589 4590 4587 4586 4587 4585 4586 4584 4582 4583 4583 4580 4578 4570 4566 4565 4565 4566 4566 4566 4565 4563 4562 4563 4562 4562 4561 4559 4561 4562 4564 4562 4559 4560 4559 4557 4554 4550 4550 4549 4547 4547 4546 4546 4544 4544 4546 4542 4543 4542 4540 4538 4540 4540 4540 4538 4538 4537 4536 4535 4535 4536 4534 4534 4533 4533 4533 4531 4529 4530 4531 4531 4530 4528 4529 4528 4526 4528 4530 4530 4530 4529 4533 4531 4528 4532 4531 4529 4528 4526 4525 4527 4528 4527 4524 4524 4525 4524 4524 4526 4525 4525 4522 4523 4525 4525 4523 4521 4522 4521 4523 4525 4523 4521 4523 4521 4521 4522 4517 4518 4520 4519 4519 4520 4518 4517 4515 4515 4518 4516 4517 4516 4515 4513 4514 4514 4512 4515 4516 4514 4515 4512 4511 4512 4510 4510 4508 4509 4507 4509 4508 4509 4507 4508 4507 4505 4504 4504 4504 4503 4501 4501 4502 4501 4502 4501 4503 4500 4499 4503 4500 4496 4495 4497 4496 4497 4497 4498 4499 4497 4496 4497 4495 4499 4498 4493 4495 4493 4496 4497 4496 4495 4495 4493 4493 4493 4492 4494 4494 4492 4491 4492 4491 4490 4491 4490 4489 4490 4490 4489 4487 4488 4492 4494 4496 4494 4492 4494 4491 4496 4496 4492 4494 4495 4494 4495 4497 4495 4492 4493 4492 4488 4487 4486 4488 4487 4482 4484 4486 4485 4484 4485 4484 4482 4483 4482 4481 4479 4478 4479 4480 4480 4479 4480 4479 4479 4479 4480 4480 4479 4479 4477 4478 4477 4479 4477 4478 4475 4475 4474 4477 4477 4476 4476 4476 4478 4476 4474 4470 4472 4473 4473 4474 4474 4474 4472 4473 4476 4474 4471 4471 4470 4471 4471 4469 4472 4475 4475 4474 4472 4471 4471 4470 4470 4471 4469 4470 4470 4470 4471 4471 4469 4469 4471 4469 4467 4465 4469 4466 4468 4465 4464 4469 4470 4467 4467 4467 4467 4469 4467 4464 4465 4463 4466 4466 4465 4465 4468 4468 4467 4467 4467 4465 4463 4463 4464 4466 4465 4463 4461 4461 4463 4463 4465 4465 4464 4462 4462 4463 4461 4462 4462 4464 4464 4463 4464 4463 4464 4465 4465 4462 4462 4461 4460 4462 4463 4461 4460 4461 4460 4461 4461 4462 4464 4461 4459 4458 4455 4457 4453 4454 4452 4453 4451 4452 4453 4454 4456 4453 4452 4452 4449 4451 4450 4450 4451 4452 4452 4450 4450 4450 4452 4450 4449 4450 4448 4448 4445 4444 4443 4444 4444 4444 4442 4446 4447 4441 4441 4444 4448 4447 4445 4444 4443 4440 4442 4441 4440 4440 4437 4440 4440 4438 4436 4434 4434 4432 4433 4431 4432 4431 4425 4430 4429 4427 4427 4428 4428 4429 4427 4426 4426 4427 4424 4423 4424 4428 4427 4430 4426 4426 4426 4425 4426 4426 4426 4425 4425 4424 4424 4424 4424 4424 4424 4424 4424 4424 4424 4424 4424 4424 4424 4424 4424 4424 4424 4424 4424 4424 4424 4424 4424 4424 4424 4424 4424 4424 4424 4424 4424 4424 4424 4424 4424 4424 4424 4424 4424 4424 4424 4424 4424 4424 4424 4424 4424 4424 4424 4424 4424 4424 4424 4424 4424 4424 4424 4424 4424 4424 4424 4424 4424 4424 4424 4424 4424 4424 4424 4424 4424 4424 4424 4424 4424 4424 4424 4424 4424 4424 4424 4424 4424 4424 4424 4424 4424 4424 4424 4424 4424 4424 4424 4424 4424 4424 4424 4424 4424 4424 4424 4424 4424 4424 4424
4620 4617 4615 4611 4610 4607 4604 4602 4599 4597 4594 4592 4591 4589 4588 4586 4584 4587 4584 4585 4586 4586 4585 4583 4582 4578 4570 4569 4567 4568 4567 4568 4566 4565 4565 4563 4562 4563 4563 4563 4565 4564 4563 4563 4562 4561 4560 4561 4559 4552 4550 4550 4549 4548 4547 4547 4547 4546 4544 4544 4543 4542 4541 4541 4541 4542 4542 4541 4539 4538 4539 4538 4536 4536 4536 4533 4533 4533 4533 4533 4534 4533 4531 4529 4531 4530 4530 4529 4530 4531 4529 4531 4532 4531 4529 4533 4528 4531 4530 4530 4529 4530 4531 4531 4528 4527 4528 4526 4526 4525 4525 4524 4526 4525 4526 4526 4525 4525 4527 4522 4523 4522 4521 4524 4524 4524 4523 4521 4521 4521 4520 4519 4518 4520 4520 4518 4519 4518 4518 4518 4516 4516 4517 4516 4517 4516 4516 4516 4514 4514 4516 4516 4514 4514 4513 4513 4510 4514 4511 4511 4512 4508 4507 4506 4507 4507 4507 4506 4504 4503 4505 4502 4501 4503 4501 4500 4500 4502 4501 4500 4502 4501 4500 4499 4498 4498 4500 4498 4499 4498 4497 4497 4498 4498 4497 4498 4496 4499 4495 4495 4493 4496 4494 4492 4493 4495 4493 4491 4494 4496 4499 4495 4494 4492 4493 4493 4490 4491 4490 4489 4491 4491 4492 4492 4491 4493 4498 4496 4496 4495 4497 4497 4498 4497 4494 4496 4498 4496 4496 4493 4494 4493 4492 4493 4493 4495 4490 4489 4488 4488 4488 4485 4484 4486 4485 4484 4484 4485 4481 4479 4479 4480 4479 4481 4482 4480 4483 4480 4479 4479 4479 4479 4481 4479 4481 4478 4476 4476 4478 4479 4477 4478 4476 4476 4477 4475 4477 4480 4478 4476 4474 4474 4472 4473 4474 4475 4472 4473 4470 4472 4474 4474 4473 4471 4472 4472 4470 4471 4469 4468 4470 4471 4470 4470 4471 4470 4468 4470 4469 4468 4467 4471 4470 4469 4473 4471 4471 4472 4467 4467 4468 4466 4467 4463 4467 4469 4467 4468 4464 4465 4464 4465 4464 4465 4465 4463 4464 4465 4464 4466 4468 4468 4465 4465 4463 4464 4464 4466 4465 4464 4463 4463 4462 4463 4461 4463 4466 4465 4464 4465 4463 4462 4463 4463 4462 4462 4461 4459 4462 4463 4461 4462 4461 4463 4461 4463 4463 4460 4460 4461 4461 4460 4459 4462 4462 4462 4462 4460 4459 4457 4455 4456 4456 4455 4453 4454 4452 4454 4455 4453 4454 4452 4450 4452 4451 4452 4450 4449 4451 4451 4451 4451 4451 4448 4450 4448 4449 4450 4449 4448 4445 4445 4444 4441 4444 4442 4443 4443 4445 4442 4443 4445 4446 4448 4447 4444 4443 4443 4444 4445 4442 4441 4440 4441 4439 4437 4437 4434 4433 4431 4431 4431 4430 4429 4429 4429 4427 4428 4429 4426 4427 4428 4428 4427 4427 4428 4427 4424 4421 4425 4425 4425 4423 4425 4426 4427 4424 4424 4427 4426 4424 4424 4424 4424 4424 4424 4424 4424 4424 4424 4424 4424 4424 4424 4424 4424 4424 4424 4424 4424 4424 4424 4424 4424 4424 4424 4424 4424 4424 4424 4424 4424 4424 4424 4424 4424 4424 4424 4424 4424 4424 4424 4424 4424 4424 4424 4424 4424 4424 4424 4424 4424 4424 4424 4424 4424 4424 4424 4424 4424 4424 4424 4424 4424 4424 4424 4424 4424 4424 4424 4424 4424 4424 4424 4424 4424 4424 4424 4424 4424 4424 4424 4424 4424 4424 4424 4424 4424 4424 4424 4424 4424 4424 4424 4424 4424 4424 4424 4424 4424 4424 4424 4424 4424 4424 4424 4424
4622 4618 4614 4610 4610 4607 4603 4601 4598 4597 4593 4593 4594 4591 4592 4588 4586 4584 4588 4585 4584 4585 4583 4581 4580 4576 4571 4570 4570 4569 4568 4568 4567 4565 4564 4565 4564 4564 4566 4567 4565 4563 4563 4562 4564 4563 4563 4558 4555 4551 4551 4550 4550 4548 4549 4550 4548 4547 4545 4544 4544 4544 4544 4543 4543 4542 4541 4540 4541 4540 4539 4538 4537 4536 4536 4535 4533 4532 4534 4533 4531 4531 4532 4530 4531 4530 4531 4529 4529 4530 4531 4530 4529 4531 4531 4531 4531 4534 4531 4528 4526 4528 4528 4530 4529 4529 4529 4527 4528 4522 4525 4526 4526 4529 4525 4524 4526 4524 4526 4519 4522 4525 4522 4525 4521 4520 4523 4522 4521 4521 4524 4522 4520 4520 4518 4518 4518 4518 4517 4519 4518 4519 4521 4517 4516 4518 4516 4517 4517 4515 4515 4514 4513 4514 4514 4514 4510 4513 4510 4510 4510 4511 4511 4510 4509 4508 4507 4506 4505 4504 4504 4503 4501 4500 4500 4501 4500 4501 4502 4503 4502 4499 4498 4501 4501 4500 4499 4498 4499 4498 4495 4495 4496 4498 4497 4493 4495 4498 4498 4496 4495 4497 4495 4494 4493 4495 4494 4497 4498 4497 4497 4495 4495 4495 4492 4491 4490 4490 4492 4493 4494 4496 4493 4495 4496 4496 4496 4495 4499 4499 4498 4502 4496 4499 4499 4498 4501 4501 4500 4496 4498 4497 4499 4494 4496 4495 4493 4495 4491 4492 4492 4488 4485 4484 4485 4485 4483 4483 4479 4484 4483 4482 4481 4482 4482 4478 4481 4482 4478 4479 4478 4478 4478 4478 4479 4477 4479 4477 4476 4475 4477 4477 4477 4474 4477 4475 4475 4479 4474 4475 4476 4475 4476 4474 4473 4472 4474 4474 4472 4472 4473 4473 4472 4471 4471 4471 4473 4475 4474 4469 4471 4470 4470 4472 4469 4469 4469 4469 4467 4468 4468 4470 4469 4472 4469 4472 4473 4474 4469 4467 4470 4470 4468 4465 4466 4469 4469 4470 4468 4464 4464 4465 4464 4466 4465 4465 4467 4465 4463 4463 4462 4464 4464 4464 4463 4464 4465 4465 4466 4464 4464 4464 4462 4463 4462 4466 4464 4463 4465 4461 4462 4462 4462 4465 4464 4464 4461 4463 4461 4463 4464 4462 4462 4462 4461 4462 4460 4459 4460 4460 4458 4461 4463 4463 4462 4461 4460 4458 4460 4459 4457 4457 4457 4455 4457 4456 4454 4453 4453 4454 4454 4451 4450 4450 4450 4450 4447 4447 4450 4449 4452 4452 4450 4449 4448 4448 4449 4450 4449 4449 4448 4446 4445 4446 4447 4443 4442 4443 4442 4443 4444 4445 4447 4448 4448 4448 4445 4447 4445 4443 4443 4444 4443 4438 4438 4437 4436 4434 4432 4431 4431 4431 4433 4431 4428 4427 4426 4426 4428 4427 4426 4427 4429 4427 4425 4425 4426 4426 4426 4428 4426 4426 4426 4426 4428 4426 4425 4425 4424 4424 4424 4424 4424 4424 4424 4424 4424 4424 4424 4424 4424 4424 4424 4424 4424 4424 4424 4424 4424 4424 4424 4424 4424 4424 4424 4424 4424 4424 4424 4424 4424 4424 4424 4424 4424 4424 4424 4424 4424 4424 4424 4424 4424 4424 4424 4424 4424 4424 4424 4424 4424 4424 4424 4424 4424 4424 4424 4424 4424 4424 4424 4424 4424 4424 4424 4424 4424 4424 4424 4424 4424 4424 4424 4424 4424 4424 4424 4424 4424 4424 4424 4424 4424 4424 4424 4424 4424 4424 4424 4424 4424 4424 4424 4424 4424 4424 4424 4424 4424 4424 4424 4424 4424 4424 4424 4424 4424
4621 4616 4615 4612 4610 4606 4603 4603 4600 4596 4594 4593 4592 4592 4591 4591 4589 4586 4587 4588 4583 4585 4583 4582 4577 4573 4571 4570 4569 4570 4571 4569 4571 4569 4567 4565 4567 4567 4567 4568 4568 4566 4565 4563 4563 4562 4560 4556 4553 4552 4551 4551 4552 4550 4549 4549 4548 4548 4546 4545 4545 4546 4545 4544 4543 4543 4541 4540 4539 4539 4539 4536 4538 4538 4535 4535 4534 4534 4534 4533 4531 4532 4533 4531 4533 4531 4532 4530 4530 4531 4532 4532 4533 4530 4532 4530 4533 4534 4530 4529 4530 4531 4529 4529 4528 4529 4528 4528 4527 4523 4530 4528 4528 4529 4528 4524 4521 4524 4525 4523 4521 4524 4523 4524 4523 4524 4524 4520 4523 4520 4523 4522 4521 4518 4519 4519 4518 4519 4517 4518 4519 4521 4518 4518 4517 4517 4516 4515 4517 4515 4515 4515 4514 4514 4513 4513 4513 4511 4510 4511 4510 4510 4513 4509 4509 4507 4506 4507 4505 4505 4504 4503 4502 4501 4502 4502 4502 4501 4501 4501 4501 4500 4500 4500 4500 4499 4499 4495 4497 4499 4499 4497 4498 4500 4499 4496 4497 4497 4497 4496 4499 4496 4498 4497 4498 4498 4496 4498 4499 4496 4496 4495 4494 4494 4493 4493 4495 4497 4497 4496 4497 4499 4497 4496 4498 4497 4499 4497 4500 4500 4499 4500 4500 4503 4502 4499 4502 4503 4501 4502 4501 4496 4497 4497 4497 4496 4498 4496 4494 4487 4491 4489 4488 4488 4485 4483 4483 4483 4481 4483 4481 4481 4483 4481 4481 4480 4479 4479 4481 4480 4480 4479 4480 4479 4479 4476 4477 4478 4476 4474 4476 4476 4476 4476 4478 4477 4476 4477 4476 4476 4475 4479 4476 4477 4473 4475 4475 4475 4474 4472 4474 4474 4474 4472 4472 4472 4469 4470 4472 4470 4469 4469 4470 4473 4472 4470 4471 4469 4466 4467 4470 4473 4469 4472 4472 4468 4466 4469 4469 4467 4470 4469 4470 4467 4466 4469 4468 4467 4466 4466 4465 4471 4467 4467 4467 4465 4467 4465 4464 4465 4462 4465 4466 4464 4463 4463 4464 4464 4465 4462 4461 4464 4461 4459 4459 4463 4463 4465 4464 4464 4464 4462 4461 4463 4463 4464 4461 4462 4464 4466 4465 4463 4461 4463 4461 4463 4463 4463 4464 4461 4461 4461 4461 4460 4463 4461 4460 4460 4460 4459 4457 4456 4453 4454 4456 4453 4454 4452 4454 4454 4453 4451 4453 4455 4452 4450 4450 4448 4450 4451 4451 4450 4449 4449 4450 4451 4451 4451 4447 4449 4451 4449 4449 4450 4448 4446 4444 4444 4444 4446 4447 4445 4445 4448 4448 4448 4447 4445 4446 4443 4444 4444 4443 4441 4439 4438 4435 4436 4430 4428 4432 4433 4432 4433 4430 4428 4428 4429 4428 4426 4427 4427 4428 4427 4427 4428 4426 4426 4427 4429 4427 4426 4426 4430 4426 4426 4424 4424 4424 4424 4424 4424 4424 4424 4424 4424 4424 4424 4424 4424 4424 4424 4424 4424 4424 4424 4424 4424 4424 4424 4424 4424 4424 4424 4424 4424 4424 4424 4424 4424 4424 4424 4424 4424 4424 4424 4424 4424 4424 4424 4424 4424 4424 4424 4424 4424 4424 4424 4424 4424 4424 4424 4424 4424 4424 4424 4424 4424 4424 4424 4424 4424 4424 4424 4424 4424 4424 4424 4424 4424 4424 4424 4424 4424 4424 4424 4424 4424 4424 4424 4424 4424 4424 4424 4424 4424 4424 4424 4424 4424 4424 4424 4424 4424 4424 4424 4424 4424 4424 4424 4424 4424 4424 4424 4424 4424 4424
4620 4617 4614 4612 4609 4607 4605 4604 4601 4598 4595 4596 4593 4594 4590 4590 4590 4589 4586 4587 4585 4586 4584 4582 4577 4574 4572 4572 4571 4570 4573 4570 4569 4570 4568 4568 4569 4570 4569 4569 4566 4564 4565 4563 4563 4559 4556 4555 4555 4554 4552 4552 4550 4549 4551 4551 4549 4549 4548 4547 4547 4546 4544 4543 4544 4543 4541 4540 4540 4538 4538 4539 4537 4539 4537 4537 4535 4535 4534 4533 4534 4532 4533 4530 4532 4531 4531 4530 4529 4529 4532 4532 4533 4530 4532 4531 4529 4531 4531 4531 4532 4532 4531 4528 4530 4530 4528 4530 4528 4528 4530 4529 4525 4526 4530 4527 4524 4523 4526 4527 4523 4525 4524 4526 4526 4526 4527 4521 4522 4524 4523 4522 4518 4521 4519 4519 4518 4520 4519 4519 4520 4519 4517 4518 4518 4517 4517 4517 4516 4517 4516 4514 4514 4514 4513 4513 4513 4513 4510 4512 4512 4513 4513 4511 4509 4508 4508 4506 4506 4507 4505 4503 4502 4501 4503 4503 4502 4500 4500 4500 4500 4500 4499 4498 4500 4500 4499 4499 4498 4499 4501 4503 4498 4498 4499 4498 4498 4497 4499 4498 4498 4496 4497 4496 4497 4496 4497 4498 4496 4495 4496 4495 4493 4495 4494 4497 4500 4503 4503 4502 4501 4498 4499 4500 4498 4501 4504 4501 4504 4503 4501 4501 4501 4505 4504 4505 4504 4502 4506 4503 4499 4498 4501 4503 4501 4497 4496 4496 4496 4495 4495 4493 4489 4487 4484 4480 4482 4482 4484 4482 4480 4479 4479 4479 4479 4481 4481 4480 4480 4479 4480 4479 4479 4479 4476 4476 4477 4478 4476 4476 4476 4477 4477 4477 4478 4477 4476 4475 4475 4474 4474 4478 4474 4474 4475 4475 4473 4475 4473 4474 4475 4472 4471 4471 4472 4470 4469 4470 4470 4470 4469 4469 4470 4470 4470 4467 4470 4466 4468 4468 4469 4469 4467 4472 4471 4468 4468 4470 4471 4469 4468 4467 4469 4470 4471 4466 4467 4466 4465 4467 4467 4469 4468 4464 4470 4467 4468 4466 4466 4465 4466 4466 4466 4465 4465 4465 4462 4464 4464 4461 4461 4462 4461 4461 4460 4462 4460 4462 4463 4462 4462 4462 4462 4462 4463 4464 4464 4462 4461 4462 4463 4462 4464 4465 4464 4463 4465 4461 4462 4462 4462 4462 4461 4459 4460 4462 4461 4462 4458 4457 4457 4455 4456 4454 4455 4452 4451 4453 4453 4451 4451 4450 4452 4452 4451 4451 4452 4450 4450 4451 4449 4448 4449 4452 4450 4452 4450 4450 4448 4448 4449 4450 4450 4451 4449 4445 4446 4447 4446 4446 4448 4445 4447 4450 4450 4449 4448 4449 4447 4449 4446 4442 4442 4441 4438 4435 4434 4436 4434 4429 4428 4428 4431 4430 4429 4427 4426 4427 4424 4425 4427 4428 4427 4425 4426 4427 4426 4424 4424 4426 4429 4427 4422 4424 4424 4424 4424 4424 4424 4424 4424 4424 4424 4424 4424 4424 4424 4424 4424 4424 4424 4424 4424 4424 4424 4424 4424 4424 4424 4424 4424 4424 4424 4424 4424 4424 4424 4424 4424 4424 4424 4424 4424 4424 4424 4424 4424 4424 4424 4424 4424 4424 4424 4424 4424 4424 4424 4424 4424 4424 4424 4424 4424 4424 4424 4424 4424 4424 4424 4424 4424 4424 4424 4424 4424 4424 4424 4424 4424 4424 4424 4424 4424 4424 4424 4424 4424 4424 4424 4424 4424 4424 4424 4424 4424 4424 4424 4424 4424 4424 4424 4424 4424 4424 4424 4424 4424 4424 4424 4424 4424 4424 4424 4424 4424 4424 4424
4622 4619 4613 4612 4611 4607 4607 4604 4603 4600 4596 4594 4598 4594 4591 4591 4591 4589 4591 4588 4585 4588 4584 4581 4576 4574 4576 4573 4574 4572 4572 4572 4571 4572 4571 4573 4570 4572 4569 4569 4568 4566 4565 4563 4561 4558 4558 4557 4555 4554 4555 4554 4551 4551 4551 4550 4549 4550 4549 4547 4547 4546 4544 4544 4544 4543 4541 4540 4540 4539 4539 4539 4538 4536 4536 4536 4536 4536 4536 4535 4534 4532 4533 4535 4534 4534 4529 4530 4532 4532 4532 4533 4535 4531 4531 4533 4534 4534 4532 4533 4535 4529 4530 4530 4529 4532 4529 4531 4530 4530 4530 4530 4527 4528 4533 4528 4524 4527 4525 4528 4526 4523 4522 4522 4522 4523 4526 4523 4522 4520 4521 4521 4520 4523 4518 4519 4520 4521 4520 4520 4519 4520 4518 4518 4520 4517 4517 4515 4515 4515 4515 4513 4515 4514 4513 4513 4512 4511 4510 4510 4514 4514 4510 4511 4511 4509 4506 4508 4507 4506 4505 4504 4503 4505 4506 4504 4504 4504 4500 4499 4500 4500 4499 4498 4499 4498 4498 4499 4499 4502 4500 4499 4497 4497 4500 4497 4499 4499 4499 4498 4499 4499 4497 4498 4496 4498 4496 4497 4496 4494 4497 4495 4497 4503 4505 4511 4511 4508 4502 4503 4503 4503 4502 4502 4502 4503 4504 4506 4508 4508 4505 4506 4506 4511 4512 4510 4508 4505 4504 4505 4504 4503 4503 4503 4505 4501 4500 4498 4496 4498 4495 4493 4491 4488 4488 4491 4483 4483 4482 4484 4484 4480 4480 4481 4481 4482 4481 4483 4479 4480 4480 4477 4479 4478 4476 4476 4477 4477 4477 4477 4476 4477 4477 4477 4475 4475 4476 4475 4475 4475 4475 4473 4474 4472 4474 4474 4473 4474 4477 4474 4473 4475 4473 4470 4470 4470 4470 4472 4472 4471 4472 4471 4472 4471 4468 4468 4469 4468 4468 4467 4468 4467 4467 4471 4469 4468 4469 4470 4470 4465 4465 4465 4466 4468 4470 4467 4465 4467 4466 4465 4468 4467 4469 4468 4465 4468 4468 4466 4467 4466 4467 4466 4467 4466 4464 4463 4463 4462 4464 4463 4461 4461 4460 4461 4461 4461 4460 4462 4462 4462 4464 4462 4459 4464 4463 4461 4460 4462 4463 4464 4463 4462 4463 4462 4464 4465 4464 4461 4462 4463 4464 4462 4462 4460 4462 4463 4461 4463 4457 4458 4459 4457 4456 4456 4457 4456 4450 4453 4454 4452 4449 4450 4451 4451 4451 4451 4450 4451 4451 4450 4449 4448 4448 4451 4449 4452 4451 4452 4447 4447 4449 4450 4449 4451 4453 4448 4447 4447 4444 4446 4447 4447 4449 4448 4448 4449 4451 4449 4447 4446 4447 4446 4443 4442 4440 4436 4436 4437 4433 4427 4428 4428 4429 4430 4429 4428 4430 4429 4424 4426 4428 4425 4426 4424 4424 4425 4428 4426 4427 4428 4427 4424 4424 4424 4424 4424 4424 4424 4424 4424 4424 4424 4424 4424 4424 4424 4424 4424 4424 4424 4424 4424 4424 4424 4424 4424 4424 4424 4424 4424 4424 4424 4424 4424 4424 4424 4424 4424 4424 4424 4424 4424 4424 4424 4424 4424 4424 4424 4424 4424 4424 4424 4424 4424 4424 4424 4424 4424 4424 4424 4424 4424 4424 4424 4424 4424 4424 4424 4424 4424 4424 4424 4424 4424 4424 4424 4424 4424 4424 4424 4424 4424 4424 4424 4424 4424 4424 4424 4424 4424 4424 4424 4424 4424 4424 4424 4424 4424 4424 4424 4424 4424 4424 4424 4424 4424 4424 4424 4424 4424 4424 4424 4424 4424 4424 4424 4424
4623 4618 4615 4612 4611 4609 4606 4606 4604 4599 4597 4597 4594 4594 4593 4593 4591 4591 4589 4589 4586 4588 4583 4577 4575 4575 4578 4577 4575 4573 4571 4573 4574 4575 4574 4573 4571 4570 4570 4568 4569 4567 4566 4562 4560 4558 4558 4559 4557 4556 4556 4554 4553 4553 4553 4552 4550 4551 4549 4547 4546 4546 4545 4544 4544 4543 4541 4540 4540 4540 4540 4539 4537 4538 4538 4536 4538 4537 4536 4535 4534 4533 4533 4535 4534 4532 4532 4531 4533 4534 4534 4533 4534 4532 4532 4533 4536 4534 4531 4532 4531 4531 4530 4531 4528 4530 4531 4530 4531 4532 4531 4530 4531 4532 4529 4528 4527 4529 4531 4529 4529 4525 4523 4524 4524 4525 4522 4524 4525 4525 4521 4520 4519 4522 4522 4523 4522 4520 4519 4522 4520 4520 4519 4518 4520 4519 4518 4517 4514 4514 4516 4515 4515 4514 4516 4515 4513 4512 4514 4512 4514 4515 4510 4506 4507 4508 4507 4507 4509 4506 4505 4506 4509 4507 4505 4507 4505 4504 4502 4499 4500 4499 4501 4498 4498 4498 4498 4497 4499 4497 4492 4498 4495 4496 4495 4495 4498 4498 4498 4497 4499 4499 4496 4498 4496 4499 4496 4498 4495 4493 4496 4500 4506 4514 4518 4519 4514 4509 4504 4503 4504 4502 4504 4506 4507 4507 4507 4507 4507 4510 4510 4511 4509 4511 4514 4509 4508 4510 4508 4506 4507 4509 4507 4506 4508 4506 4502 4499 4499 4498 4494 4493 4492 4492 4487 4487 4484 4482 4484 4483 4483 4482 4482 4481 4481 4481 4483 4482 4479 4480 4478 4477 4477 4476 4476 4476 4477 4477 4477 4478 4478 4478 4477 4477 4475 4475 4477 4475 4474 4474 4474 4474 4474 4473 4474 4474 4473 4473 4472 4475 4472 4474 4471 4470 4469 4469 4470 4472 4470 4470 4471 4472 4472 4471 4470 4470 4470 4469 4468 4467 4468 4467 4467 4469 4468 4469 4468 4470 4471 4466 4468 4468 4470 4467 4467 4468 4468 4468 4465 4466 4469 4467 4464 4467 4466 4466 4466 4464 4463 4466 4467 4462 4463 4466 4463 4464 4465 4465 4462 4462 4461 4460 4460 4462 4458 4459 4460 4459 4459 4461 4460 4459 4458 4463 4460 4463 4463 4462 4463 4462 4461 4462 4464 4464 4464 4463 4461 4462 4462 4462 4461 4464 4462 4460 4461 4462 4461 4462 4461 4459 4459 4457 4455 4455 4456 4456 4457 4454 4451 4452 4450 4451 4452 4450 4449 4452 4452 4450 4451 4450 4451 4450 4446 4448 4449 4450 4450 4450 4449 4448 4448 4451 4450 4448 4448 4448 4448 4447 4448 4449 4449 4448 4449 4447 4448 4448 4449 4449 4449 4448 4448 4447 4445 4442 4440 4439 4437 4436 4432 4430 4429 4428 4429 4426 4426 4429 4429 4428 4426 4425 4426 4426 4426 4425 4428 4427 4427 4426 4426 4426 4428 4424 4424 4424 4424 4424 4424 4424 4424 4424 4424 4424 4424 4424 4424 4424 4424 4424 4424 4424 4424 4424 4424 4424 4424 4424 4424 4424 4424 4424 4424 4424 4424 4424 4424 4424 4424 4424 4424 4424 4424 4424 4424 4424 4424 4424 4424 4424 4424 4424 4424 4424 4424 4424 4424 4424 4424 4424 4424 4424 4424 4424 4424 4424 4424 4424 4424 4424 4424 4424 4424 4424 4424 4424 4424 4424 4424 4424 4424 4424 4424 4424 4424 4424 4424 4424 4424 4424 4424 4424 4424 4424 4424 4424 4424 4424 4424 4424 4424 4424 4424 4424 4424 4424 4424 4424 4424 4424 4424 4424 4424 4424 4424 4424 4424 4424 4424
4620 4618 4615 4614 4611 4609 4606 4607 4607 4602 4601 4600 4597 4595 4595 4594 4590 4589 4588 4588 4589 4588 4586 4581 4580 4579 4577 4576 4576 4574 4575 4575 4576 4574 4574 4573 4571 4570 4570 4570 4569 4566 4564 4560 4562 4559 4559 4559 4557 4558 4556 4554 4555 4555 4554 4553 4551 4550 4550 4550 4547 4545 4546 4545 4544 4544 4542 4542 4541 4541 4540 4539 4538 4538 4539 4538 4537 4537 4535 4535 4536 4535 4533 4533 4533 4534 4533 4533 4534 4533 4534 4534 4537 4533 4531 4532 4535 4535 4531 4531 4532 4533 4531 4530 4529 4529 4530 4533 4531 4531 4533 4532 4526 4530 4531 4527 4529 4528 4530 4526 4527 4526 4527 4526 4529 4528 4526 4526 4527 4524 4524 4523 4522 4523 4523 4523 4523 4521 4520 4520 4521 4520 4517 4519 4521 4518 4518 4517 4515 4517 4517 4514 4515 4515 4517 4516 4513 4512 4514 4513 4511 4508 4510 4509 4509 4511 4510 4508 4508 4507 4509 4505 4504 4508 4505 4507 4507 4507 4507 4507 4503 4504 4504 4501 4502 4500 4501 4496 4499 4497 4490 4497 4495 4496 4496 4495 4495 4498 4497 4496 4498 4497 4497 4499 4495 4496 4495 4499 4496 4496 4507 4512 4518 4522 4524 4521 4513 4505 4502 4505 4505 4506 4508 4507 4508 4509 4508 4508 4511 4510 4512 4513 4511 4511 4513 4512 4510 4510 4510 4509 4508 4509 4511 4510 4510 4508 4504 4505 4502 4499 4495 4493 4494 4489 4489 4486 4485 4484 4483 4483 4483 4483 4481 4481 4482 4481 4480 4481 4478 4480 4479 4478 4478 4477 4478 4478 4478 4478 4477 4478 4476 4478 4476 4477 4475 4474 4475 4474 4476 4477 4475 4474 4473 4471 4472 4473 4474 4475 4471 4475 4472 4473 4471 4470 4470 4471 4471 4471 4471 4472 4472 4472 4472 4472 4472 4472 4470 4470 4468 4468 4469 4469 4466 4467 4469 4469 4471 4471 4469 4471 4466 4468 4468 4468 4466 4468 4468 4468 4468 4468 4466 4466 4466 4468 4469 4468 4467 4466 4462 4464 4466 4464 4464 4464 4461 4463 4464 4462 4462 4462 4461 4462 4462 4462 4460 4459 4460 4460 4458 4457 4460 4459 4459 4460 4457 4461 4459 4456 4459 4461 4461 4463 4466 4465 4462 4463 4462 4461 4460 4461 4461 4461 4461 4462 4460 4460 4462 4461 4461 4459 4461 4460 4455 4454 4455 4457 4454 4453 4454 4452 4452 4450 4452 4451 4451 4450 4451 4450 4450 4449 4450 4449 4448 4448 4448 4447 4449 4446 4447 4449 4448 4448 4449 4449 4448 4449 4447 4446 4449 4449 4447 4450 4449 4448 4451 4450 4451 4450 4449 4447 4446 4447 4446 4443 4439 4437 4435 4436 4433 4428 4430 4429 4425 4426 4427 4428 4427 4426 4424 4426 4427 4424 4427 4426 4425 4426 4426 4424 4424 4424 4424 4424 4424 4424 4424 4424 4424 4424 4424 4424 4424 4424 4424 4424 4424 4424 4424 4424 4424 4424 4424 4424 4424 4424 4424 4424 4424 4424 4424 4424 4424 4424 4424 4424 4424 4424 4424 4424 4424 4424 4424 4424 4424 4424 4424 4424 4424 4424 4424 4424 4424 4424 4424 4424 4424 4424 4424 4424 4424 4424 4424 4424 4424 4424 4424 4424 4424 4424 4424 4424 4424 4424 4424 4424 4424 4424 4424 4424 4424 4424 4424 4424 4424 4424 4424 4424 4424 4424 4424 4424 4424 4424 4424 4424 4424 4424 4424 4424 4424 4424 4424 4424 4424 4424 4424 4424 4424 4424 4424 4424 4424 4424 4424 4424 4424 4424 4424
4621 4619 4618 4614 4612 4610 4608 4606 4606 4605 4605 4600 4600 4599 4597 4595 4594 4593 4589 4588 4589 4587 4583 4582 4583 4580 4579 4576 4574 4578 4579 4579 4576 4574 4574 4574 4572 4570 4571 4571 4569 4566 4563 4562 4563 4560 4561 4559 4558 4558 4557 4556 4556 4555 4553 4553 4553 4551 4550 4550 4549 4548 4548 4546 4545 4543 4543 4543 4542 4542 4541 4541 4540 4539 4539 4538 4538 4539 4537 4537 4537 4537 4534 4535 4534 4536 4535 4534 4534 4533 4533 4533 4536 4536 4534 4533 4534 4533 4531 4533 4532 4532 4534 4533 4532 4531 4533 4532 4533 4530 4533 4533 4526 4526 4529 4526 4528 4527 4530 4530 4526 4528 4529 4528 4528 4531 4527 4525 4523 4523 4524 4525 4526 4526 4524 4523 4522 4523 4522 4520 4520 4520 4520 4520 4520 4521 4517 4515 4518 4517 4518 4515 4515 4516 4513 4513 4515 4514 4512 4511 4510 4508 4511 4509 4508 4513 4512 4510 4507 4509 4510 4507 4507 4510 4509 4506 4508 4508 4508 4511 4506 4507 4506 4504 4505 4500 4502 4500 4504 4503 4503 4504 4504 4503 4504 4502 4499 4501 4502 4501 4501 4504 4500 4499 4501 4498 4500 4502 4503 4507 4515 4519 4522 4525 4522 4516 4511 4510 4506 4508 4509 4509 4506 4509 4511 4512 4515 4514 4513 4514 4517 4517 4515 4515 4517 4516 4514 4515 4513 4512 4512 4511 4512 4512 4512 4510 4509 4508 4505 4501 4501 4496 4491 4490 4491 4489 4487 4486 4483 4484 4483 4482 4482 4481 4483 4481 4480 4480 4479 4479 4478 4479 4477 4478 4479 4478 4480 4480 4477 4477 4478 4477 4477 4478 4477 4476 4476 4475 4475 4476 4476 4475 4474 4474 4473 4474 4474 4474 4472 4473 4472 4473 4472 4473 4474 4473 4470 4471 4472 4470 4471 4471 4470 4470 4470 4471 4470 4471 4471 4471 4471 4470 4467 4466 4466 4469 4470 4470 4469 4469 4470 4467 4467 4467 4466 4469 4470 4468 4465 4466 4465 4467 4467 4467 4465 4465 4464 4464 4464 4464 4462 4462 4465 4464 4462 4460 4464 4467 4465 4462 4462 4464 4461 4462 4460 4459 4462 4461 4460 4460 4460 4461 4458 4457 4457 4462 4459 4458 4456 4461 4462 4464 4464 4461 4461 4462 4461 4460 4458 4458 4461 4462 4461 4463 4462 4463 4462 4462 4460 4460 4460 4460 4459 4455 4454 4458 4455 4456 4454 4452 4452 4452 4451 4452 4451 4450 4451 4452 4449 4450 4449 4451 4449 4449 4449 4449 4447 4446 4446 4448 4448 4447 4448 4447 4448 4447 4446 4447 4448 4446 4449 4449 4449 4450 4448 4446 4450 4448 4451 4449 4448 4448 4445 4443 4440 4439 4439 4436 4434 4430 4430 4430 4428 4428 4427 4426 4428 4424 4425 4425 4426 4425 4425 4425 4427 4426 4429 4424 4424 4424 4424 4424 4424 4424 4424 4424 4424 4424 4424 4424 4424 4424 4424 4424 4424 4424 4424 4424 4424 4424 4424 4424 4424 4424 4424 4424 4424 4424 4424 4424 4424 4424 4424 4424 4424 4424 4424 4424 4424 4424 4424 4424 4424 4424 4424 4424 4424 4424 4424 4424 4424 4424 4424 4424 4424 4424 4424 4424 4424 4424 4424 4424 4424 4424 4424 4424 4424 4424 4424 4424 4424 4424 4424 4424 4424 4424 4424 4424 4424 4424 4424 4424 4424 4424 4424 4424 4424 4424 4424 4424 4424 4424 4424 4424 4424 4424 4424 4424 4424 4424 4424 4424 4424 4424 4424 4424 4424 4424 4424 4424 4424 4424 4424 4424 4424 4424 4424
4623 4621 4619 4616 4611 4611 4609 4608 4606 4608 4607 4600 4598 4597 4595 4595 4595 4593 4591 4590 4589 4586 4582 4582 4583 4581 4580 4581 4580 4578 4579 4579 4577 4575 4574 4573 4572 4571 4570 4570 4568 4564 4564 4562 4561 4560 4560 4559 4559 4558 4558 4558 4556 4555 4553 4552 4554 4552 4551 4549 4548 4548 4547 4546 4545 4545 4544 4544 4544 4543 4542 4542 4542 4544 4546 4547 4543 4544 4542 4541 4540 4538 4536 4536 4538 4536 4534 4534 4537 4535 4534 4537 4533 4535 4534 4532 4534 4533 4533 4535 4536 4533 4534 4533 4533 4533 4532 4529 4531 4532 4531 4531 4535 4531 4530 4527 4528 4530 4528 4531 4525 4528 4528 4529 4525 4527 4524 4524 4525 4525 4525 4526 4525 4523 4522 4523 4523 4523 4527 4523 4522 4520 4521 4520 4519 4519 4520 4517 4519 4518 4519 4518 4518 4514 4514 4511 4514 4510 4512 4508 4508 4510 4509 4510 4512 4515 4512 4510 4509 4507 4507 4512 4511 4512 4512 4511 4511 4510 4510 4510 4512 4510 4510 4511 4508 4508 4505 4509 4516 4518 4519 4519 4516 4517 4518 4515 4512 4511 4511 4508 4513 4510 4507 4509 4508 4507 4507 4512 4514 4515 4521 4524 4527 4525 4520 4511 4508 4508 4507 4508 4510 4510 4509 4512 4514 4514 4516 4519 4517 4519 4520 4519 4518 4520 4520 4519 4521 4518 4517 4518 4516 4514 4513 4515 4515 4512 4512 4508 4509 4506 4503 4499 4493 4494 4492 4489 4490 4489 4485 4484 4482 4485 4482 4479 4481 4479 4482 4481 4479 4481 4482 4479 4479 4478 4479 4479 4481 4479 4476 4477 4478 4478 4477 4477 4476 4476 4476 4475 4475 4476 4473 4475 4476 4475 4475 4475 4472 4472 4473 4473 4474 4473 4472 4471 4473 4473 4472 4473 4471 4470 4470 4469 4470 4470 4471 4471 4471 4470 4470 4471 4470 4468 4469 4471 4468 4468 4467 4469 4470 4470 4468 4466 4467 4468 4467 4468 4469 4467 4467 4465 4463 4467 4465 4464 4468 4467 4465 4467 4468 4465 4465 4463 4464 4464 4462 4461 4464 4461 4463 4462 4461 4460 4461 4462 4463 4464 4461 4461 4462 4462 4459 4461 4459 4458 4461 4460 4458 4459 4460 4460 4458 4460 4459 4460 4458 4458 4455 4454 4457 4458 4459 4459 4458 4460 4460 4461 4461 4460 4459 4462 4462 4462 4459 4459 4458 4456 4455 4455 4455 4452 4452 4451 4450 4452 4454 4452 4452 4451 4451 4450 4450 4450 4450 4450 4449 4449 4451 4449 4448 4449 4448 4448 4446 4447 4448 4449 4446 4447 4447 4447 4450 4451 4451 4450 4449 4448 4447 4448 4448 4450 4449 4448 4447 4443 4441 4440 4439 4439 4437 4431 4430 4428 4427 4427 4428 4431 4427 4424 4428 4425 4426 4427 4426 4427 4428 4427 4427 4424 4424 4424 4424 4424 4424 4424 4424 4424 4424 4424 4424 4424 4424 4424 4424 4424 4424 4424 4424 4424 4424 4424 4424 4424 4424 4424 4424 4424 4424 4424 4424 4424 4424 4424 4424 4424 4424 4424 4424 4424 4424 4424 4424 4424 4424 4424 4424 4424 4424 4424 4424 4424 4424 4424 4424 4424 4424 4424 4424 4424 4424 4424 4424 4424 4424 4424 4424 4424 4424 4424 4424 4424 4424 4424 4424 4424 4424 4424 4424 4424 4424 4424 4424 4424 4424 4424 4424 4424 4424 4424 4424 4424 4424 4424 4424 4424 4424 4424 4424 4424 4424 4424 4424 4424 4424 4424 4424 4424 4424 4424 4424 4424 4424 4424 4424 4424 4424 4424 4426
4621 4619 4618 4615 4613 4611 4608 4606 4606 4607 4606 4602 4598 4597 4596 4594 4593 4591 4593 4590 4585 4585 4585 4583 4580 4579 4581 4583 4581 4580 4580 4578 4577 4577 4575 4575 4574 4573 4570 4569 4566 4566 4566 4565 4562 4561 4559 4560 4559 4558 4557 4557 4557 4556 4554 4554 4553 4552 4551 4550 4550 4549 4548 4546 4546 4545 4544 4543 4544 4544 4542 4542 4545 4545 4546 4546 4544 4543 4544 4542 4543 4543 4541 4539 4537 4536 4536 4535 4536 4536 4537 4536 4535 4536 4534 4538 4534 4533 4532 4533 4536 4536 4536 4535 4534 4534 4535 4529 4532 4531 4529 4530 4532 4530 4529 4532 4532 4529 4530 4533 4530 4529 4528 4530 4526 4527 4524 4528 4527 4527 4525 4524 4524 4524 4525 4524 4524 4523 4524 4523 4521 4522 4522 4519 4518 4522 4520 4520 4519 4516 4518 4517 4516 4515 4517 4517 4512 4512 4510 4511 4515 4513 4515 4517 4519 4523 4518 4516 4515 4511 4515 4517 4515 4515 4515 4514 4516 4516 4516 4516 4516 4514 4516 4515 4513 4513 4516 4522 4526 4529 4530 4531 4531 4530 4530 4529 4528 4526 4523 4524 4523 4521 4523 4523 4520 4520 4517 4517 4521 4522 4524 4528 4529 4524 4522 4518 4511 4508 4510 4511 4514 4514 4514 4515 4517 4517 4516 4517 4518 4520 4521 4521 4521 4523 4521 4522 4523 4518 4517 4519 4521 4523 4521 4520 4520 4513 4515 4515 4511 4509 4505 4501 4498 4495 4494 4494 4492 4486 4486 4486 4484 4484 4481 4482 4480 4479 4480 4479 4480 4480 4483 4481 4479 4479 4478 4479 4478 4476 4479 4478 4477 4478 4477 4475 4475 4476 4476 4475 4475 4475 4476 4475 4473 4474 4472 4474 4472 4473 4472 4472 4474 4471 4470 4472 4473 4473 4471 4472 4471 4468 4470 4470 4470 4468 4468 4470 4469 4469 4470 4471 4469 4468 4468 4468 4467 4472 4467 4466 4469 4468 4468 4470 4469 4467 4469 4468 4468 4469 4468 4464 4465 4465 4467 4466 4466 4466 4466 4466 4469 4465 4463 4466 4467 4464 4462 4460 4460 4461 4461 4460 4463 4462 4459 4461 4461 4462 4463 4462 4455 4460 4458 4459 4460 4461 4457 4457 4459 4457 4458 4458 4455 4455 4457 4458 4456 4456 4453 4454 4454 4457 4454 4457 4459 4459 4458 4461 4462 4462 4462 4461 4462 4461 4460 4458 4458 4455 4453 4453 4454 4453 4456 4453 4455 4452 4452 4451 4451 4449 4449 4450 4450 4450 4450 4449 4449 4450 4450 4450 4451 4451 4450 4448 4446 4447 4447 4450 4448 4447 4450 4451 4451 4450 4449 4450 4451 4451 4448 4449 4447 4450 4449 4448 4448 4445 4441 4438 4441 4439 4436 4429 4428 4428 4429 4426 4428 4427 4426 4427 4428 4427 4427 4428 4427 4426 4427 4427 4420 4424 4424 4424 4424 4424 4424 4424 4424 4424 4424 4424 4424 4424 4424 4424 4424 4424 4424 4424 4424 4424 4424 4424 4424 4424 4424 4424 4424 4424 4424 4424 4424 4424 4424 4424 4424 4424 4424 4424 4424 4424 4424 4424 4424 4424 4424 4424 4424 4424 4424 4424 4424 4424 4424 4424 4424 4424 4424 4424 4424 4424 4424 4424 4424 4424 4424 4424 4424 4424 4424 4424 4424 4424 4424 4424 4424 4424 4424 4424 4424 4424 4424 4424 4424 4424 4424 4424 4424 4424 4424 4424 4424 4424 4424 4424 4424 4424 4424 4424 4424 4424 4424 4424 4424 4424 4424 4424 4424 4424 4424 4424 4424 4424 4424 4424 4424 4424 4424 4424 4425
